ply                 
format ascii 1.0    
element vertex 1214
property float x    
property float y    
property float z    
property uchar red  
property uchar green
property uchar blue 
end_header          
-0.506816 -0.437405 2.86937 90 86 74 
-0.609532 -0.485242 3.31056 150 149 145 
-0.747654 -0.499055 3.53398 107 112 105 
-0.576913 -0.499988 3.54725 163 163 161 
-0.559573 -0.501013 3.54589 93 94 89 
-0.441322 -0.322298 2.15333 235 236 228 
-0.461483 -0.339475 2.39102 218 215 208 
-0.493833 -0.298283 2.08994 53 54 59 
-0.454716 -0.298121 2.15585 66 72 70 
-0.433218 -0.342644 2.5407 147 143 134 
-1.68874 -0.866909 7.74634 122 130 133 
-1.34791 -0.809865 7.25413 111 119 122 
-0.420417 -0.277894 2.19704 145 143 131 
-0.41088 -0.272255 2.19011 221 224 213 
-0.463436 -0.280972 2.3472 118 111 101 
-0.428068 -0.259798 2.1867 107 100 90 
-0.523594 -0.303735 2.90263 121 131 132 
-2.1882 -1.01953 13.5039 140 144 145 
-1.30223 -0.483705 6.42474 98 106 109 
-0.587553 -0.256954 3.50374 136 144 146 
-0.496829 -0.206455 2.97754 122 124 123 
-1.94971 0.281253 -15.6763 206 203 188 
-2.3376 0.249517 -19.5876 92 89 74 
-1.14071 0.0405598 -10.8628 218 215 200 
-1.95033 0.165223 13.4263 167 167 167 
-0.322376 0.0190741 2.22714 210 208 196 
-1.62196 0.214228 8.46698 150 159 164 
-0.367284 0.052059 3.58614 109 111 108 
-3.78016 0.771329 22.1005 124 129 132 
-0.45083 0.0914324 2.07802 167 175 177 
-3.03401 1.07749 16.2603 143 155 155 
-1.41703 -0.342179 -6.4007 184 185 171 
-11.681 6.39473 95.3005 115 123 125 
-1.68172 0.625162 9.30515 66 70 73 
-0.31267 0.137652 2.462 130 132 127 
-1.09911 -0.753937 -11.985 164 166 155 
-1.0902 -0.306996 -5.1363 178 180 169 
-1.1507 -0.299665 -5.06458 202 204 193 
-0.660162 0.225134 3.34314 196 198 184 
-1.28079 -0.299851 -3.95174 99 110 104 
-1.30999 -0.298911 -3.95537 236 247 243 
-1.38358 -0.341638 -4.51656 116 126 125 
-1.16842 -0.610039 -2.79777 152 143 144 
-0.986932 -0.403782 -1.84606 166 166 166 
-1.27703 -0.268517 -1.28577 79 79 81 
-0.904727 -0.281684 -1.2965 167 158 161 
-1.00128 -0.403386 -1.81662 71 77 77 
-1.81763 -1.18263 -5.28426 36 38 37 
-1.08423 -0.536994 -2.37053 54 59 62 
-1.14034 -0.576636 -2.43511 59 60 64 
-0.921392 -0.382411 -1.60879 87 88 93 
-1.14189 -0.606811 -2.43603 88 93 97 
-0.921411 -0.380697 -1.24563 116 125 130 
-0.994703 -0.545079 -1.60556 157 160 165 
-1.15886 -0.731489 -2.1412 172 162 161 
-1.14538 -0.771689 -2.14939 147 100 92 
-1.00367 -0.515349 -1.33022 158 145 139 
-0.891788 -1.51236 3.77148 152 152 152 
-1.00332 -1.64568 4.26712 117 116 114 
-1.01825 -1.41379 3.74631 237 240 233 
-1.12226 -1.8971 5.17008 130 122 120 
-0.827265 -1.27226 3.73633 114 114 114 
-0.972388 -1.42563 4.49172 239 239 229 
-1.72621 -2.24772 7.50058 154 154 154 
-2.90892 -5.19758 17.9008 145 145 145 
-1.00086 -1.5808 5.55662 235 232 225 
-3.1803 -3.55539 14.2736 129 129 129 
-3.21801 -3.44582 14.0207 117 121 122 
-0.550873 -0.664426 2.81212 121 120 125 
-5.49773 -5.17355 27.8896 212 209 192 
-1.30835 -1.14152 7.04521 97 94 77 
-0.713735 -0.663976 3.90873 94 92 77 
-0.411151 -0.550719 3.11372 136 134 121 
-0.519878 -0.435723 2.63889 111 108 91 
-0.448253 -0.424266 2.55305 156 154 141 
-0.777295 -0.628086 4.27591 157 150 134 
-0.430555 -0.38152 2.4799 98 99 93 
-0.677488 -0.607841 4.25948 87 96 91 
-0.614076 -0.504127 3.57113 97 99 96 
-0.46632 -0.318463 2.13408 37 36 31 
-0.581058 -0.462904 3.32843 113 117 116 
-0.450588 -0.357577 2.46131 234 231 224 
-0.517323 -0.412069 2.98722 93 99 95 
-0.453048 -0.304157 2.17817 63 69 67 
-0.494548 -0.383466 2.95782 146 149 142 
-1.97121 -1.04531 9.40565 126 134 137 
-1.84471 -1.10109 9.79849 117 125 128 
-1.30473 -0.684465 6.17577 111 119 122 
-0.688102 -0.435431 4.05324 127 134 140 
-0.563649 -0.358946 3.35458 121 129 132 
-0.40587 -0.25069 2.21608 104 102 90 
-0.425841 -0.242772 2.21638 175 168 158 
-3.34743 -1.25909 16.4431 133 135 134 
-2.19329 -0.901851 11.8754 125 129 130 
-2.07905 -0.962638 12.5138 123 127 128 
-0.555536 -0.235639 3.35158 114 120 120 
-0.495103 -0.215539 3.0011 150 151 153 
-0.163413 -0.1553 2.47804 231 231 231 
0.160737 -0.368849 11.8538 118 115 110 
-1.19243 0.457352 -23.0914 208 208 198 
-1.47354 0.115175 -8.46781 96 93 78 
-2.35113 0.266399 -19.5745 92 89 74 
-0.277047 -0.0219357 2.63805 124 118 102 
-0.255015 -0.0153847 2.52047 61 59 47 
-0.111567 0.120195 5.45491 71 79 82 
-0.364738 0.0558746 2.62487 140 140 140 
-2.61191 0.85799 22.4366 99 104 108 
-0.471361 0.140311 3.43531 118 124 124 
-0.425867 0.125219 3.24399 85 88 93 
-0.429093 0.0927808 2.14008 164 172 174 
-1.38158 -0.256123 -5.2272 251 249 236 
-0.391606 0.126102 2.47474 147 155 158 
-3.57605 1.54262 22.8529 107 117 119 
-5.22809 3.97425 61.1304 72 76 79 
-1.2252 -0.349522 -2.0859 11 21 23 
-0.912193 -0.264843 -1.2253 167 158 161 
-1.06314 -0.47565 -2.14552 155 161 159 
-42.9834 -39.4623 -176.416 42 46 45 
-0.989627 -0.410357 -1.83202 158 166 168 
-1.57337 -0.934721 -4.15911 35 36 41 
-1.8525 -1.24467 -5.52086 40 44 45 
-0.922285 -0.275243 -1.23245 54 57 64 
-1.05125 -0.49498 -2.18635 88 96 98 
-1.55283 -0.93496 -3.97924 40 43 48 
-1.05225 -0.504943 -2.13525 94 102 104 
-0.907206 -0.324294 -1.37064 100 110 112 
-0.936757 -0.328567 -1.39045 87 88 93 
-1.15257 0.181138 0.620055 150 159 166 
3.60243 4.32651 15.6319 199 199 187 
-0.927207 -0.366152 -1.1968 121 132 136 
-25.984 -30.6274 -93.3639 55 60 64 
-1.14573 -0.726145 -2.18727 81 86 90 
-0.981701 -0.532478 -1.57373 80 83 88 
-1.18353 -0.883316 -2.58183 165 161 162 
-1.00472 -0.491343 -1.26964 158 145 139 
-1.02637 -0.500663 -1.29303 175 162 153 
-0.99058 -0.553529 -1.40384 101 92 83 
-1.0039 -0.451266 -1.15286 108 99 90 
-1.01053 -1.57637 4.1938 226 231 224 
-1.33854 -1.85905 5.54623 201 201 201 
-0.836837 -1.22834 3.61035 160 160 160 
-1.30484 -1.70966 5.31531 160 159 155 
-0.557343 -0.674151 2.78534 253 253 255 
-1.28908 -1.55847 8.80701 113 110 93 
-1.16361 -1.48361 8.674 141 133 120 
-0.674789 -0.756634 4.43834 94 92 77 
-2.01103 -1.5477 10.4274 158 164 160 
-0.469935 -0.502124 3.01809 99 96 79 
-0.471227 -0.373529 2.32947 227 229 218 
-0.479164 -0.332447 2.06366 210 210 208 
-0.773257 -0.633219 4.28375 124 118 102 
-0.508028 -0.44612 2.89723 110 107 92 
-1.19045 -0.826045 5.99003 153 146 136 
-0.614061 -0.735694 5.07608 83 93 85 
-0.561259 -0.391912 2.79041 80 82 77 
-0.415861 -0.275022 1.87471 231 233 228 
-0.599798 -0.328334 3.11049 127 135 138 
-0.509593 -0.31979 3.02152 126 136 138 
-2.3584 -0.904113 11.2958 116 128 128 
0.94612 2.13647 -26.1765 116 119 124 
-0.701123 -0.280857 3.81949 133 145 143 
-0.622721 -0.249241 3.32467 135 145 147 
-0.56258 -0.241347 3.32677 159 165 165 
-0.745082 -0.247135 3.75731 217 210 200 
-1.24173 0.185437 -13.99 131 127 115 
-1.98212 0.294107 13.2493 150 157 163 
-1.43278 0.140735 3.24294 171 181 182 
-0.475971 0.0555957 2.1848 103 105 104 
-3.7436 1.4544 37.7634 101 106 110 
-0.436777 0.115137 2.84212 82 87 90 
0.0173218 0.1792 4.82428 169 173 174 
-0.187634 0.0917167 2.23479 190 198 200 
-32.497 17.9446 279.641 104 114 115 
-3.09685 1.83551 29.1851 66 70 71 
-0.0348776 3.00978 16.9609 20 40 38 
-1.52156 -0.869938 -4.02985 142 134 132 
-1.0648 -0.47943 -2.19165 156 156 154 
-1.17185 -0.653889 -2.97778 132 128 127 
-0.926294 -0.360475 -1.63489 136 135 140 
-2.32698 -2.07348 -8.92764 36 42 42 
-7.54612 -6.93489 -29.8837 49 54 57 
-1.14489 0.167399 0.568568 142 151 160 
-1.12411 -0.63364 -1.90209 92 97 101 
-0.975492 -0.546962 -1.62044 71 76 80 
-1.16446 -0.803598 -2.34942 123 122 127 
-0.995502 -0.545822 -1.41047 131 111 110 
-1.02439 -0.556918 -1.43846 155 138 130 
-1.17352 -1.70206 9.92876 121 111 101 
-18.8095 -27.0369 179.026 138 144 140 
-0.49063 -0.434346 2.59816 212 208 196 
-1.39206 -1.15472 7.79904 102 109 102 
-1.19279 -0.802367 5.72941 152 150 138 
-0.710056 -0.567245 3.88215 89 87 75 
-0.728505 -0.639969 4.6585 138 132 116 
-0.629135 -0.410772 2.89676 100 102 97 
-0.543341 -0.403 2.88587 95 101 97 
-0.502945 -0.287638 2.00029 40 46 44 
-1.86857 -1.15432 10.382 117 125 128 
-1.35932 -0.762941 7.04115 134 142 144 
-0.594493 -0.390479 3.6826 132 140 143 
-0.564855 -0.278724 2.7003 116 126 128 
-0.57311 -0.179664 1.6783 184 178 166 
-2.33524 -1.2767 16.1952 128 132 133 
-0.650392 -0.322417 4.2795 131 143 141 
-0.576095 -0.289304 3.79602 136 146 148 
-1.18335 -0.487073 9.24308 112 112 102 
-6.83275 0.791385 -80.5922 112 109 94 
1.61637 -0.281722 28.1651 96 97 83 
-0.381399 0.0249663 2.52282 191 190 185 
-0.256863 0.146171 3.63758 103 108 112 
4.91615 -5.2648 -84.5428 66 70 71 
-1.36104 -0.244398 -4.71855 255 252 237 
-1.42007 -0.354545 -4.63081 116 127 129 
-2.1032 3.80213 20.9269 21 25 34 
-1.01042 -0.186938 -1.14996 19 30 34 
-0.993734 0.24965 1.28964 18 27 26 
-10.1782 -26.1113 -147.419 8 19 15 
-1.70898 -1.04877 -6.08017 52 66 67 
-1.29379 -0.3476 -2.09533 6 20 21 
-1.45507 -0.441119 -2.645 9 20 24 
-0.939669 -0.316859 -1.44065 136 135 140 
-1.06546 -0.49653 -2.2495 155 161 159 
-1.08439 -0.504689 -2.1859 65 66 70 
-1.13456 -0.641171 -2.75871 49 60 56 
-1.9641 -1.49671 -6.45714 36 42 42 
-2.14365 -1.55089 -6.70234 48 54 54 
-1.96544 -1.42319 -5.92369 156 157 161 
-1.13217 -0.728782 -2.1771 93 97 100 
-1.01042 -0.577763 -1.71309 63 68 72 
1.2251 2.31281 6.50635 76 66 65 
-1.02846 -0.583124 -1.49215 151 143 132 
-0.975252 -1.40335 4.95712 234 233 228 
-0.945155 -1.42381 6.01474 236 231 225 
-0.556288 -0.662255 2.72101 255 255 255 
-0.57097 -0.608369 2.61689 106 105 113 
-1.27959 -2.14811 11.5686 147 143 134 
-1.37251 -1.93188 11.0451 120 117 100 
-0.700311 -0.721833 4.06935 159 158 140 
-1.34004 -0.94914 6.44124 101 108 101 
-0.617146 -0.719911 4.94107 87 96 91 
-0.515065 -0.311337 3.02012 116 127 129 
-0.496607 -0.202111 1.98836 194 190 178 
-2.16774 -1.13701 14.2236 126 130 131 
-1.38551 -0.650958 8.03037 113 123 125 
-0.615264 -0.366456 4.7045 134 150 147 
-0.691276 -0.303275 4.40548 228 225 218 
-1.2581 -0.847903 15.6527 110 110 102 
-0.574765 -0.385664 6.72917 164 162 150 
-1.25473 0.156393 -11.067 137 133 121 
-1.15491 -0.0172959 -11.3105 215 212 197 
-2.60823 0.343267 21.0753 154 159 163 
-1.07311 -0.636609 -11.1086 179 177 164 
-0.343882 0.130529 2.19105 122 125 108 
-1.35742 -0.359786 -4.66168 164 197 202 
-1.65502 -0.957535 -5.56166 52 66 67 
-1.30134 -0.360307 -2.16755 5 19 20 
-1.98747 -1.34135 -6.12812 144 144 144 
-0.94362 -0.306197 -1.39508 130 129 134 
-4.58532 -3.9006 -16.9617 59 64 67 
-6.3176 -4.92354 -21.4689 39 37 40 
-1.08501 -0.455391 -1.97392 69 67 72 
-2.01151 -1.49514 -6.24072 116 117 121 
5.29752 5.90577 24.4862 148 159 155 
-1.50928 -0.927243 -3.80862 146 146 144 
-1.55244 -1.30257 -3.84416 174 159 162 
-1.0308 -0.603986 -1.55213 177 164 155 
-0.546996 -0.621626 2.67886 153 151 164 
-1.362 -0.981302 6.55399 89 91 78 
-1.2056 -0.954165 6.55932 148 144 132 
-0.461814 -0.345985 2.12669 220 220 218 
-0.48261 -0.273226 2.23868 170 169 151 
-0.531823 -0.355928 3.36005 125 133 136 
-0.57589 -0.26787 2.69041 128 139 143 
-1.44289 -0.728776 8.86812 125 135 137 
-0.58093 -0.328103 4.06225 134 145 149 
-0.4534 -0.277476 3.32061 129 133 142 
-1.15961 -0.446809 8.28479 137 135 122 
-0.777517 -0.211641 4.00388 116 115 113 
-1.80159 0.168868 9.91694 156 161 165 
-0.590929 0.0694114 3.371 154 164 173 
-0.515528 0.102304 1.88135 79 89 90 
-0.327994 0.197136 3.29044 90 93 102 
-0.110792 0.982246 4.28389 64 70 70 
-1.12188 -0.672465 -2.93981 50 54 57 
-2.42464 -2.35121 -10.2354 41 47 47 
-4.82575 -3.88077 -16.4663 141 144 149 
0.525993 1.28363 5.23258 181 184 177 
-1.4527 -1.05548 -3.14889 136 125 129 
-1.14365 -0.706637 -2.08362 128 129 133 
-0.545889 -0.605006 2.65511 142 142 150 
-0.441222 -0.528338 3.09356 116 113 98 
-0.443629 -0.406771 2.46415 227 228 220 
-0.44047 -0.287848 2.38001 110 103 95 
-1.36144 -0.561958 6.95121 125 135 137 
-1.12513 -0.429547 7.70952 122 119 112 
-0.406203 0.0209412 2.44499 197 194 187 
-0.617605 0.0630701 3.09164 173 183 192 
-0.369507 0.0521989 3.17211 126 127 132 
-1.03904 -0.760244 1.7832 93 93 93 
-1.02176 -1.60776 3.76467 109 108 114 
-1.1515 -1.6696 3.97377 112 115 120 
-1.07606 -1.6803 3.97265 102 102 104 
5.46353 6.11122 22.2848 70 48 35 
-1.93258 -1.27249 -5.50629 70 73 78 
-6.45724 -5.59721 -24.4043 66 69 74 
-0.905152 -0.304074 -1.36198 64 72 75 
-1.05156 -0.460309 -2.09153 91 102 108 
-0.453502 -0.338272 2.09832 141 140 135 
-2.76409 -2.87678 18.9371 150 155 151 
-0.920999 22.621 92.5048 95 100 104 
-0.945769 -0.328546 -1.49026 118 129 131 
-1.34643 -0.382907 -1.80388 165 166 171 
-0.381003 -0.00989118 2.15718 204 201 194 
-0.354578 0.0121778 2.24742 85 87 74 
-4.13851 -3.35384 20.629 158 155 136 
-0.98913 -1.52747 4.00735 132 131 129 
-1.12226 -1.605 3.87347 131 134 141 
-1.0709 -1.59954 3.83969 254 255 255 
-0.942527 -1.55082 3.73936 249 248 253 
-1.1556 -1.58032 3.98002 224 224 222 
-0.918034 -1.33152 3.38763 232 231 227 
-2.96792 -2.94927 19.9666 111 120 119 
-0.533924 -0.423897 6.28295 228 225 218 
-1.26332 0.119816 1.6021 124 138 139 
-1.25525 0.126371 1.6574 114 120 120 
-0.988394 -0.385411 -1.7852 177 181 180 
-1.05116 -0.458834 -2.07223 98 109 115 
-0.902329 -0.31284 -1.40065 55 63 66 
-1.31452 -0.380243 -1.70816 46 47 52 
-2.185 -1.59556 14.066 125 133 136 
-0.591194 -0.374513 5.51809 225 226 220 
-1.22351 0.157556 2.21139 117 122 116 
-1.15168 -0.518313 -2.43326 171 162 157 
-1.00211 -1.57959 4.12241 152 151 149 
-0.384434 -0.691981 4.61869 90 96 84 
-0.508533 -0.436274 3.07314 87 89 84 
-0.93199 -0.339716 -1.56007 149 160 162 
-3.07042 -3.84503 25.9372 103 113 105 
-0.72021 -0.767267 5.1114 145 139 127 
-0.626523 -0.696095 4.73157 84 83 79 
-0.93167 -0.335012 -1.52726 168 178 180 
-10.7834 -9.19941 -41.3714 39 40 44 
-3.37332 -2.60858 -12.193 144 145 147 
-0.800406 -0.33205 2.3055 85 88 79 
-2.58728 -1.7473 -8.11749 164 168 169 
-1.14127 -1.81219 4.17876 116 117 119 
-1.15392 -1.66458 3.87547 125 126 130 
-0.993755 -1.26641 2.92001 177 177 189 
-1.00741 -1.42649 3.31369 110 113 122 
-1.12267 -1.52726 3.5813 82 81 95 
-1.02162 -1.46125 3.41458 118 121 126 
-1.07946 -1.61593 3.808 119 124 128 
-1.15355 -1.64202 3.89988 102 102 112 
-1.10793 -1.6732 4.02925 140 140 148 
-1.0227 -1.38458 3.31242 101 101 111 
-0.964185 -1.42515 3.40601 119 119 129 
-0.976268 -1.22744 2.96139 134 134 146 
-1.19494 -1.86651 4.64231 164 169 163 
-1.1657 -1.67981 4.16406 140 146 144 
-1.19712 -2.01436 5.08841 222 226 225 
-0.942176 -1.2345 3.08556 109 106 99 
-1.24351 -1.81815 4.71884 157 153 144 
-1.00142 -1.27585 3.3101 93 87 75 
-0.994383 -1.42731 3.73985 108 109 104 
-0.985126 -0.0934816 -0.268429 244 238 248 
-1.02246 -0.142788 -0.459991 118 122 125 
-0.927402 -0.218071 -0.776175 200 189 187 
-0.925936 -0.188409 -0.66907 207 189 189 
-0.927233 -0.263181 -1.06275 94 88 90 
-1.3559 -1.41073 -6.03244 155 155 157 
-0.916781 -0.211702 -0.867424 192 172 174 
-0.90503 -0.207873 -0.844586 190 165 171 
0.102231 0.772925 -2.93948 254 252 255 
-1.08566 -0.596322 -2.59341 62 62 64 
-0.931481 -0.235486 -0.99142 86 77 82 
-1.08038 -0.542497 -2.48347 47 46 51 
-1.18675 -0.165673 -1.89949 62 71 66 
-1.0964 -0.107316 -1.338 125 119 107 
-1.17375 -0.126322 -1.71471 225 218 208 
0.538688 1.43445 -6.80601 69 70 72 
-0.42578 -0.332132 -5.03616 160 164 167 
-0.542604 -0.208658 -3.02976 137 143 143 
-0.541298 -0.194771 -2.88456 118 119 114 
-0.543053 -0.187363 -2.90677 111 112 114 
0.0277637 0.572275 -3.41148 42 43 45 
0.191027 0.881934 -5.3184 158 162 165 
0.205061 0.943065 -5.66686 50 51 45 
0.247519 1.00824 -6.04042 230 230 220 
0.0129575 0.522191 -3.32292 225 228 219 
0.0222573 0.528422 -3.40008 80 80 80 
-1.20415 -1.61005 9.25593 80 73 57 
-0.0387064 0.696165 -4.47427 51 52 47 
0.152268 0.858314 -5.56952 226 226 216 
0.192915 0.85564 -5.62752 85 86 80 
-0.128507 0.454869 -3.28627 130 128 115 
1.94619 3.15509 -21.3541 77 78 73 
-2.31367 -2.18064 14.4801 141 140 135 
-0.224314 0.371487 -2.84575 64 62 49 
-0.103982 0.438861 -3.31704 177 175 162 
2.17628 4.29684 -38.7109 126 129 134 
-2.73866 -2.99144 20.3462 83 83 83 
161.176 193.3 -1719.49 119 122 129 
-1.71913 -2.26795 15.8289 88 89 94 
0.324588 1.24147 -9.23693 152 153 147 
-0.110321 0.405866 -3.27374 93 91 76 
-1.34225 -1.29173 9.5977 153 155 150 
0.180561 0.73598 -5.59436 82 74 61 
-1.27394 -1.1282 8.75554 201 198 183 
-1.14182 -1.83113 4.42196 157 157 165 
-10.2601 -13.926 95.7164 86 86 86 
-0.920368 -0.166238 -0.5632 181 157 171 
-1.17103 -1.34595 4.08579 217 215 203 
-0.0232892 0.200515 -2.53049 178 182 181 
-0.90225 -0.959187 2.87801 230 230 228 
-0.00669341 0.434191 -3.27866 60 60 48 
-0.922238 -0.1861 -0.697935 213 195 195 
-0.915001 -0.218864 -0.857425 135 138 131 
-1.05526 -1.29944 3.97818 237 233 222 
-1.18984 -1.79111 5.39842 160 161 156 
-1.35456 -1.47247 -6.18953 67 71 72 
-1.02607 -1.28305 3.9788 135 131 120 
0.695197 1.37084 -18.0728 145 150 153 
-0.952322 -1.16561 3.62499 138 137 119 
-0.900792 -0.161495 -0.643656 169 155 170 
-1.00554 -1.23462 3.9436 242 235 225 
-0.966831 -1.28121 4.09521 233 229 226 
-1.13347 -1.6541 4.0991 120 113 105 
-0.980522 -0.395844 -1.68369 87 87 89 
-2.34402 -2.30695 14.8519 135 133 121 
-0.953849 -0.300328 -1.27873 99 94 98 
-0.940571 -0.300852 -1.27085 80 70 79 
-0.905977 -0.12851 -0.522785 146 132 145 
-0.69308 0.0303848 -1.41459 222 220 208 
-0.242134 0.0629039 -2.64218 193 191 178 
-0.996398 -0.121751 -0.3344 164 133 151 
1.96535 3.20646 -20.0678 106 103 84 
-1.01627 -0.136172 -0.425048 237 232 238 
-0.948723 -0.102385 -0.30728 178 174 189 
-0.944307 -0.255901 -1.14315 68 56 68 
-0.917275 -0.274652 -1.21514 70 59 67 
-1.26934 -0.938353 -4.48077 133 121 121 
-1.01304 -0.135089 -0.415369 162 161 166 
-0.896806 -0.087349 -0.470225 174 158 168 
-0.947329 -0.136394 -0.387554 194 174 186 
-1.24059 -1.79779 5.24944 140 140 140 
-0.916376 -1.17695 2.88857 222 224 223 
-0.995051 -0.11607 -0.323066 147 120 139 
-0.981261 -0.0797563 -0.239536 216 214 219 
0.467552 1.59769 -9.79549 203 197 175 
-0.481367 -0.0805314 -3.22003 136 144 147 
-0.378655 -0.108886 -4.77476 121 126 130 
1.16655 2.55172 -14.8404 198 190 171 
0.0288327 0.862882 -3.62696 153 154 148 
0.687152 2.1674 -12.3062 95 89 67 
-0.000486485 0.412342 -2.61169 165 173 176 
0.166295 1.04576 -4.43042 124 124 122 
-1.00749 -0.135002 -0.378431 183 168 175 
-1.24971 -1.86952 4.9672 255 251 241 
1.23848 2.91741 -15.6822 133 133 123 
-0.012552 0.896425 -3.90066 163 163 161 
0.693056 1.55546 -6.82437 159 158 153 
1.53036 3.14901 -16.0534 142 127 106 
0.0461283 0.955626 -4.29271 152 151 146 
0.247248 1.01316 -5.11029 43 46 53 
-1.57347 -1.58999 -25.6554 148 146 131 
0.124557 0.912832 -4.3628 92 93 95 
-1.00232 -0.124388 -0.357282 188 170 182 
0.25174 1.09392 -5.04735 225 221 212 
-1.09336 -0.105063 -1.41315 99 93 77 
-0.658757 0.0244461 -1.54248 144 142 127 
-1.19647 -0.253802 -1.74437 116 128 108 
-1.16763 -0.165857 -1.70137 129 144 139 
-1.17578 -0.236717 -1.65152 120 129 102 
-1.16494 -0.239417 -1.6343 51 67 64 
-0.683198 0.0605214 -1.47899 177 167 142 
-0.33139 0.0452018 -3.31637 199 192 173 
-1.21064 0.11261 2.12399 137 142 148 
-1.12156 -1.73347 3.98816 103 104 108 
-1.09387 -1.72311 3.98186 106 107 111 
-1.01708 -1.32761 3.08566 181 184 189 
-0.986325 -1.40611 3.26667 105 105 115 
-1.1604 -1.67146 3.96397 220 221 226 
-1.17812 -2.01066 4.84057 155 155 163 
-1.06777 -1.48744 3.55884 246 250 253 
-1.11754 -1.74807 4.21764 135 135 145 
-0.969124 -1.33173 3.18396 126 126 138 
-1.17604 -1.72767 4.28656 161 167 165 
-1.136 -1.69294 4.1987 120 113 105 
-1.13002 -1.74855 4.35438 131 117 106 
-0.914869 -1.20821 2.97049 222 224 223 
-1.16156 -1.67092 4.22287 219 224 220 
-0.918852 -1.21549 3.04805 161 162 157 
-1.23996 -1.84018 4.75669 183 179 170 
-0.931563 -1.09143 2.76864 212 209 200 
-1.00157 -1.41895 3.70071 101 98 89 
-1.12402 -1.36984 3.7449 230 228 216 
-0.934523 -1.09333 2.99364 138 135 128 
-1.23617 -1.65124 4.73752 254 253 251 
-1.12018 -1.56889 4.55175 176 177 171 
-1.16462 -1.64234 4.91843 173 175 172 
-0.894514 -0.9219 2.76029 179 179 179 
-0.974565 -1.14013 3.56155 236 239 232 
-0.867267 -0.939502 2.91783 226 221 217 
-0.863624 -0.881308 2.74042 177 173 161 
-1.01013 -1.20547 3.8369 242 236 224 
0.165192 0.819795 -3.10369 254 252 255 
0.234579 0.856402 -3.29988 124 122 127 
-0.965831 -1.01954 3.48989 232 225 219 
16.9983 31.2537 -122.458 254 254 255 
0.105393 0.902468 -3.80117 143 144 139 
0.118363 0.939245 -3.94677 153 154 148 
0.256208 1.12006 -4.71863 168 169 164 
2.55052 5.9709 -24.2118 95 96 100 
-0.0421211 0.852202 -3.64606 168 168 166 
0.0283965 0.930658 -4.04711 179 179 177 
0.0768338 0.975922 -4.41508 166 163 158 
0.493717 1.30001 -6.06201 202 205 198 
0.0229475 0.833173 -4.10528 67 68 70 
-0.0217614 0.603304 -3.28458 91 92 96 
0.12086 0.613636 -3.6425 218 221 212 
0.548841 1.78812 -9.9325 151 136 113 
0.623129 2.08067 -11.8222 95 89 67 
-0.058282 0.382097 -2.46481 169 176 182 
0.117378 0.576762 -3.63691 219 222 213 
0.0199261 0.787031 -4.76231 50 51 45 
0.432113 1.66034 -9.75103 187 176 156 
-0.101458 0.459887 -3 96 96 94 
0.375301 1.03325 -6.61119 226 226 216 
0.329245 0.958308 -6.246 79 80 74 
-2.66994 -2.84819 18.4123 135 133 121 
0.119101 0.494405 -3.68635 73 73 61 
-0.0667923 0.445333 -3.35774 65 63 51 
-0.0528932 0.466173 -3.50007 177 175 162 
0.00717216 0.506518 -3.84323 82 75 57 
8.53821 16.5794 -113.089 83 83 83 
0.317756 0.816833 -6.22197 82 74 61 
-1.40062 -1.23731 8.51153 69 68 73 
0.866297 2.15891 -19.5784 133 136 141 
0.163763 0.532335 -7.97633 231 222 205 
-0.336727 0.0800146 -2.36616 191 189 176 
-0.526259 0.0416779 -2.15182 132 131 113 
-0.733261 -0.00190534 -1.16619 143 141 126 
-0.506588 -0.0163004 -2.86667 219 208 188 
-0.458165 -0.0396442 -3.38316 155 162 168 
0.47284 -0.195919 -22.4476 143 149 147 
-0.364097 -0.154748 -4.21892 127 128 132 
-0.392696 -0.177074 -3.10297 168 169 173 
-0.546071 -0.263927 -3.95187 105 106 110 
-0.5166 -0.290324 -4.30136 151 152 156 
-0.994765 -0.382131 -6.42178 114 101 84 
2.61824 -4.8411 -78.2211 147 140 121 
-1.41279 -1.08106 -17.2676 150 151 133 
-1.18058 -0.142765 -1.76813 238 238 236 
-1.15394 -0.143585 -1.61433 54 63 60 
-1.14242 -0.145691 -1.4888 121 140 134 
-0.897213 -0.0879658 -0.458736 65 46 52 
-0.921792 -0.231095 -1.04682 139 128 132 
-0.984024 -0.44822 -2.08316 152 144 142 
-0.918154 -0.271258 -1.19584 68 57 65 
-0.928708 -0.33046 -1.46727 69 57 69 
-1.05815 -0.574486 -2.62659 63 63 65 
-0.903816 -0.131158 -0.534391 146 132 145 
-0.886815 -0.167579 -0.686431 147 137 148 
-0.919911 -0.27912 -1.18279 75 66 71 
-0.999301 -0.454065 -1.95738 82 82 84 
-1.06313 -0.637117 -2.76707 73 73 73 
-0.915257 -0.216646 -0.887121 192 172 174 
-0.917021 -0.200371 -0.749593 207 196 194 
-0.922205 -0.19876 -0.707106 203 192 190 
-0.929366 -0.209977 -0.748593 200 192 189 
-0.922351 -0.161555 -0.548337 181 157 171 
-0.940269 -0.136335 -0.403477 190 176 193 
-1.01739 -0.151818 -0.456268 224 217 224 
-0.989636 -0.100341 -0.296172 119 77 99 
-1.10427 -1.74521 4.02775 112 111 119 
-1.14856 -1.69555 3.96446 103 103 111 
-1.09111 -1.62231 3.78913 91 94 103 
-1.00409 -1.32259 3.06614 97 99 111 
-0.986114 -1.27634 2.95476 105 105 115 
-1.16711 -1.81034 4.30469 102 102 112 
-1.06395 -1.78652 4.29601 254 255 255 
-0.971002 -1.58842 3.83567 129 128 142 
-0.953362 -1.22145 2.95232 242 243 247 
-1.13473 -1.7658 4.39087 135 122 113 
-1.17 -1.83734 4.68186 233 235 230 
-0.918807 -1.38821 3.49366 165 165 157 
-0.919881 -1.20075 3.0031 163 163 161 
-0.999461 -1.35717 3.5363 101 98 89 
-0.931594 -1.13313 3.10768 92 89 82 
-0.972564 -1.19102 3.79486 233 229 226 
0.148502 0.80885 -3.04698 255 253 255 
-3.81014 -6.00327 22.376 132 132 132 
-7.60174 -11.7781 45.7547 239 238 246 
0.489858 1.35895 -6.11466 166 163 158 
0.18169 0.678503 -3.77265 109 112 101 
0.24429 0.742635 -4.1709 216 221 217 
0.594241 1.40915 -7.85308 150 144 132 
-0.0693206 0.521002 -3.10645 49 50 52 
0.439028 1.17649 -6.704 227 228 222 
3.69207 5.31379 -31.4433 203 195 176 
0.153073 0.552913 -3.75484 187 190 181 
0.292997 0.926836 -6.0126 68 70 67 
-0.0787495 0.467102 -3.4128 220 218 206 
0.682322 1.83198 -12.3424 75 76 71 
-0.0967033 0.426907 -3.20851 71 71 59 
0.645035 2.49852 -17.3292 93 93 93 
-1.62871 -1.92356 13.2375 69 68 73 
25.2344 22.1472 -194.427 115 120 126 
-2.50977 -2.12658 18.8625 109 112 117 
-1.45545 -1.17155 10.593 127 134 140 
-34.8326 -27.9638 356.572 154 162 165 
-0.446761 -0.0105554 -3.2325 224 215 198 
-0.298408 -0.104743 -5.45048 113 114 118 
-0.145477 -1.15106 -18.8616 150 142 123 
-0.902866 -0.084005 -0.435038 76 53 61 
-1.16065 -0.271923 -1.60919 29 32 25 
-0.925975 -0.224236 -1.01393 154 143 147 
-1.20174 -0.771505 -3.68193 141 132 133 
-1.34076 -1.16361 -5.53359 106 90 91 
-0.929855 -0.238617 -1.04326 67 56 64 
-1.19719 -0.819898 -3.75957 38 35 42 
-0.909572 -0.124399 -0.50601 146 132 145 
-0.895983 -0.154397 -0.631104 150 140 151 
-0.93705 -0.304595 -1.29444 74 64 73 
-0.956237 -0.288102 -1.23608 97 92 96 
-0.978261 -0.358905 -1.55076 90 90 92 
-1.05999 -0.640397 -2.79996 71 71 71 
-0.913963 -0.190402 -0.776379 191 170 175 
-0.90768 -0.234026 -0.957577 192 172 174 
-0.927729 -0.252507 -1.0424 159 153 155 
-0.916154 -0.1736 -0.587674 134 107 124 
-0.938314 -0.140382 -0.41513 189 176 194 
-1.0281 -0.171116 -0.521548 220 215 222 
-1.02524 -0.154767 -0.468391 228 221 229 
-0.981233 -0.0838279 -0.250189 245 234 242 
-1.11768 -1.5826 3.6574 102 103 108 
-1.1084 -1.84641 4.30825 91 94 103 
-1.01986 -1.31223 3.09269 97 101 110 
-1.05697 -1.39528 3.32562 252 255 255 
-0.946515 -1.07566 2.68011 117 117 109 
-1.24442 -1.88607 4.8425 141 137 128 
-1.00972 -1.25692 3.34355 220 224 225 
-0.93471 -1.28323 3.5044 99 94 88 
-0.870238 -0.871363 2.71035 174 171 156 
-0.999886 -1.19387 4.11007 238 228 216 
1.32168 2.93216 -14.9733 136 123 106 
0.0639827 0.606701 -3.383 142 145 134 
0.106696 0.652172 -3.68644 217 222 218 
0.15855 1.01476 -5.73663 133 126 110 
0.54328 1.74561 -9.85399 153 139 113 
0.145373 0.602119 -3.71793 178 181 172 
0.0497435 0.565068 -3.48632 142 145 136 
1.26559 2.87045 -16.4024 94 88 64 
0.894385 1.45603 -8.75664 50 51 46 
-0.860951 -0.46885 2.42016 149 136 117 
0.0290311 0.493152 -3.34671 187 190 181 
1.20459 2.41644 -16.0892 82 83 77 
-1.39652 -1.76191 11.1037 90 82 69 
-0.764247 -0.503054 2.95811 88 80 69 
0.0347694 0.455375 -3.41216 60 60 48 
0.0254747 0.490623 -3.63865 71 71 59 
-2.23407 -2.24013 15.0768 79 79 77 
-0.0383143 0.58602 -4.53704 99 89 77 
1.25929 1.85983 -16.6973 133 140 146 
0.238872 1.36438 -12.4046 129 132 137 
-2.07453 -1.51658 13.3788 118 121 126 
-0.824932 -0.338756 2.64305 205 198 188 
-1.47075 -1.14421 10.1003 130 133 140 
-0.798269 -0.33439 2.96667 211 205 191 
0.291276 1.02961 -13.1095 143 152 157 
-0.736757 0.0306998 -1.27551 155 153 141 
-1.86848 0.236655 -11.764 121 121 113 
-0.586982 -0.067634 -4.33604 117 119 118 
-0.461366 -0.133868 -3.32715 102 111 110 
-0.398227 -0.156038 -4.03028 108 108 110 
-0.352856 -0.270045 -4.22337 114 120 120 
0.516409 -2.01467 -33.5313 150 142 123 
-1.06893 -0.562751 -2.64749 159 150 151 
-0.927011 -0.256508 -1.11725 69 59 67 
-0.93809 -0.270978 -1.18532 68 58 69 
-1.04151 -0.565896 -2.53466 68 68 70 
-1.11115 -0.668782 -3.01572 45 44 50 
-0.901845 -0.134663 -0.54704 149 137 149 
-0.914303 -0.130577 -0.53542 147 137 148 
-0.910163 -0.197943 -0.805196 193 177 180 
-0.909112 -0.147479 -0.585126 181 170 184 
-0.926842 -0.212641 -0.762189 203 198 194 
-1.10778 -1.50648 3.475 94 94 104 
-1.00538 -1.51528 3.55066 80 83 98 
-1.11676 -1.71787 4.28575 126 123 118 
-0.93762 -1.21991 3.04085 117 117 109 
-1.14411 -1.457 3.94471 225 223 211 
-1.59328 -2.32063 7.44385 144 146 145 
-0.851744 -0.919988 2.8766 157 151 139 
-0.987469 -1.35117 4.69586 237 228 219 
-49.6737 -97.3523 370.632 137 137 137 
0.0509842 0.601431 -3.307 132 135 124 
0.51326 1.91012 -9.83755 153 140 123 
1.05142 2.53059 -13.549 182 178 166 
2.16383 4.14626 -23.6333 90 84 60 
0.0615224 0.540687 -3.44592 208 211 202 
-1.07451 -0.89382 5.44067 128 113 82 
-0.0350887 0.489267 -3.56028 215 213 201 
13.0027 13.9619 -93.6125 188 185 168 
0.787843 1.97281 -13.2628 74 75 70 
0.0657487 1.59794 -11.0361 75 75 73 
-0.131372 0.527252 -4.09517 104 94 82 
-0.817128 -0.393342 2.63911 162 158 149 
0.804776 1.50061 -13.5576 132 139 145 
-1.55808 -1.97608 16.5304 211 208 199 
-3.73287 -3.89405 35.0916 109 112 117 
-2.25963 -3.00613 27.3188 130 135 141 
-0.334339 -0.219457 -5.36262 100 101 105 
0.135944 -0.591425 -16.2946 153 158 161 
-1.06513 -0.261506 -4.52721 113 101 77 
-0.946883 -0.367066 -1.61966 84 79 83 
-1.07176 -0.852921 -3.83181 62 62 64 
-0.918216 -0.183966 -0.74205 187 172 175 
-0.931453 -0.195617 -0.702354 203 198 194 
-1.17667 -1.83816 4.77506 227 228 223 
-1.00035 -1.32413 3.55109 206 207 199 
-0.950626 -1.19439 3.18996 172 166 154 
-1.64905 -2.50716 8.05482 203 207 208 
-0.982687 -1.29789 4.06439 231 232 226 
-0.843773 -0.977666 3.07074 157 151 139 
-39.6353 -68.7935 265.858 255 255 255 
-0.965382 -0.796814 3.298 233 232 227 
2.68207 4.84675 -27.5896 90 84 60 
0.0943035 0.79456 -5.03768 45 47 44 
0.0188209 0.513856 -3.74828 150 148 136 
1.72152 3.00059 -20.1165 74 75 70 
0.370959 0.635799 -4.78886 62 62 50 
2.08511 4.31395 -29.5195 78 78 76 
-7.87874 -11.2494 76.0009 151 151 149 
-0.0445756 0.5891 -4.47988 119 111 98 
-1.40881 -1.31135 8.88347 86 84 85 
-10.5613 -10.3116 92.8676 122 122 130 
-2.02907 -2.31292 20.8098 131 136 142 
2.28659 2.06671 -24.8252 156 165 172 
-0.436851 0.0142953 -2.05006 95 93 81 
-0.48685 -0.272727 -4.25633 114 115 119 
-0.28879 2.82764 54.1914 118 106 82 
-1.07405 -0.54646 -2.5624 143 137 137 
-0.912422 -0.14312 -0.56625 171 163 178 
-0.871877 -0.303646 -1.22678 193 188 184 
-0.930467 -0.198989 -0.717322 206 201 197 
-0.994207 -1.044 3.26194 231 232 226 
-0.978317 -1.08445 3.7776 234 229 225 
-4.62741 -6.48921 24.8361 255 255 255 
-0.971891 -0.908358 3.72472 231 230 225 
0.990511 1.68721 -9.37701 234 235 227 
-1.59305 -2.51105 14.9566 89 77 63 
0.576937 1.61028 -14.2455 109 116 122 
-34.2967 -49.588 450.438 129 132 137 
-0.110213 0.680632 -8.36805 157 166 175 
-0.228146 0.360744 -5.43372 226 220 206 
-0.929883 -0.208418 -0.944022 139 128 132 
-0.91645 -0.231013 -0.835826 200 197 192 
0.561632 1.33095 -7.36361 225 226 218 
0.451196 1.0972 -6.63519 41 43 40 
0.428602 0.893282 -6.57308 169 163 147 
-7.98356 -6.2175 54.5637 122 127 133 
1.53882 4.39031 -41.0175 135 138 145 
1.2188 1.13971 -15.3465 230 227 218 
-0.687046 0.0620207 -1.64509 209 208 190 
-1.141 -1.79437 4.47085 106 106 104 
-1.16223 -1.72379 4.3288 228 229 224 
-0.939036 -1.28764 3.23083 107 102 98 
-1.0117 -1.39573 3.78709 177 177 179 
-0.998369 -1.3993 3.79607 176 176 178 
-0.0825989 0.664758 -2.14983 165 165 165 
-0.921624 -1.17709 3.57275 228 229 224 
-0.0918054 0.620808 -2.12392 94 94 94 
-0.948725 -1.21487 3.78821 149 139 129 
-0.967672 -1.38209 4.43126 238 237 235 
-1.01091 -1.28477 4.12226 232 223 218 
-0.0841288 0.630802 -2.48534 96 97 99 
-0.102878 0.482801 -2.05771 224 227 218 
1.23843 1.99363 -8.13837 244 244 246 
14.4886 14.5484 -59.7163 141 141 139 
-36.5613 -34.0762 142.113 147 147 147 
-36.9525 -34.668 150.152 174 176 173 
-0.992593 -0.110087 -0.304135 78 83 79 
-1.00778 -0.117612 -0.368446 168 171 176 
1.02464 2.54177 -12.9946 130 123 104 
0.00141897 1.27118 -6.83337 211 206 200 
-1.01238 -0.1192 -0.379814 142 140 143 
-0.150857 0.349051 -2.23434 168 175 181 
-0.250639 0.391259 -2.52651 69 71 70 
-1.29968 -2.22214 12.7969 68 65 50 
-0.0911132 0.471461 -3.04536 82 84 81 
-0.046847 0.711181 -4.65379 230 226 217 
0.697605 1.82664 -11.5252 106 98 87 
-0.140678 0.410824 -2.82506 188 191 180 
0.0753971 0.774336 -5.11135 91 90 88 
-1.29513 -1.62506 10.062 141 132 115 
-0.168752 0.43915 -3.16805 134 132 119 
0.445137 1.53857 -10.5532 85 85 83 
-0.210978 0.347727 -2.63771 65 69 54 
-12.6045 -18.9921 129.173 161 160 156 
-9.07774 -12.2426 84.2487 94 99 103 
0.130414 0.708739 -5.39649 87 78 61 
0.372287 1.30207 -9.67431 156 160 159 
-1.31799 -1.3132 10.3306 203 201 188 
-0.985077 -0.097658 -0.283222 196 195 201 
-24.3501 -20.9071 270.211 234 243 250 
-0.9075 -0.222705 -0.871923 136 142 130 
-1.13751 -0.607038 -2.57233 155 159 160 
-0.868109 -0.207002 -0.840253 99 98 103 
-0.994423 -0.385495 -1.64184 80 85 88 
-0.979411 -0.362244 -1.53962 76 81 84 
-0.755675 0.0233685 -1.13985 222 218 209 
-0.295594 -0.00266492 -1.38655 105 105 95 
-1.11034 -0.518741 -2.26062 27 27 35 
-0.94429 -0.272079 -1.16396 44 49 52 
-0.382027 -0.010674 -1.24011 224 221 214 
-0.338776 -0.0171951 -1.29851 91 88 81 
-0.279927 0.00664013 -4.07407 155 143 121 
-0.28031 -0.0141879 -3.91712 217 206 188 
-0.302924 -0.0963906 -4.31548 141 146 152 
-0.361205 -0.143251 -3.98908 131 130 138 
-0.366869 -0.152607 -4.18773 106 111 115 
-0.398335 -0.181883 -3.12435 139 144 140 
-0.960131 -1.21446 4.18012 229 223 201 
-0.907906 -0.224688 -0.841664 200 196 185 
-0.988998 -0.0252415 -0.0999139 87 75 89 
-0.750262 0.0519573 -1.35472 179 178 160 
0.556106 1.39455 -11.3644 180 188 191 
-1.10017 -1.84984 4.29358 113 113 113 
-1.02088 -1.51044 3.54028 134 133 139 
-1.07714 -1.50299 3.56273 126 126 124 
-1.04085 -1.50849 3.63213 248 249 253 
-1.1306 -1.72368 4.28816 106 106 104 
-0.995479 -1.39477 3.4892 112 109 104 
-0.921302 -1.17586 2.94132 152 148 145 
-0.928371 -1.2843 3.54839 149 148 144 
-0.0900193 0.638725 -2.12246 221 221 221 
-0.973069 -1.18784 3.72229 235 240 234 
-0.0744537 0.651247 -2.49274 255 255 255 
-0.138772 0.480822 -2.03859 234 237 226 
0.838993 1.53799 -6.40008 149 151 146 
-3.66882 -2.47024 9.95709 156 156 154 
9.40832 9.71111 -39.8945 120 120 118 
1.18482 1.71128 -7.23008 158 158 156 
-4.84552 -3.69568 15.9596 161 163 160 
0.479823 1.85618 -9.51223 130 123 104 
-0.181748 0.279583 -1.64644 232 233 227 
-0.0959817 0.521031 -2.92219 127 130 123 
-0.120542 0.286193 -1.79286 198 198 196 
0.301522 1.13575 -6.45276 149 146 127 
-0.137336 0.312952 -1.96396 178 179 184 
-0.202798 0.29305 -1.88256 168 182 185 
-0.157307 0.431096 -2.77564 217 219 214 
-1.25024 -1.77945 10.2118 90 87 72 
0.0472548 0.784509 -5.08866 224 221 216 
-0.175546 0.394663 -2.71776 188 191 180 
0.642133 1.64182 -11.0175 191 184 168 
-0.266351 0.386118 -2.81992 139 136 121 
0.340395 1.42797 -9.78102 85 85 83 
-20.1345 -30.9226 209.792 147 146 142 
-0.107973 0.391468 -2.96629 66 69 62 
-0.213327 0.391013 -3.0033 77 70 51 
0.152041 0.715142 -5.49268 102 94 73 
-0.228461 0.198605 -1.76596 143 151 154 
-0.282299 0.190082 -1.70378 163 171 174 
-0.291703 0.123284 -1.61899 140 144 145 
-0.293918 0.143137 -1.85694 187 191 194 
-0.343413 -0.009312 -3.55092 215 203 181 
-0.340761 -0.161105 -4.39094 106 111 115 
-0.982951 -0.36695 -6.96753 107 94 78 
-1.02022 -0.0897316 -1.54434 244 227 219 
-0.275012 -0.317233 -4.74847 126 134 137 
-0.46749 -0.240827 -3.5694 123 131 133 
-1.03345 -0.349019 -1.61304 131 137 137 
-0.976956 -0.34402 -1.54966 63 68 71 
-0.934478 -0.299297 -1.32261 46 47 52 
-0.867007 -0.182069 -0.743391 122 127 133 
-0.875162 -0.196587 -0.812105 102 97 103 
-0.903966 -0.22792 -0.931687 151 151 143 
-0.913912 -0.259898 -0.926025 198 193 187 
-0.891179 -0.230446 -0.776583 187 186 184 
-1.00275 -0.119619 -0.342042 152 150 153 
-0.967024 -1.29944 3.10887 118 119 121 
-1.15228 -1.69584 4.30756 229 226 219 
-0.0951615 0.651268 -2.11724 140 140 140 
-1.16749 -1.68599 5.02167 161 163 158 
-1.01004 -1.29457 4.05247 232 232 220 
-0.123866 0.475667 -1.7897 255 255 255 
-0.136447 0.509013 -2.92844 219 224 220 
0.289625 1.57169 -8.54571 211 207 198 
-0.220002 0.255459 -1.60837 156 164 167 
-0.132608 0.396645 -2.35908 231 234 225 
0.0496666 0.91972 -5.22218 142 139 122 
0.137764 0.927904 -5.33967 229 231 226 
-0.12134 1.11404 -6.42966 101 89 75 
-0.164601 0.306557 -1.96978 168 182 185 
-0.181079 0.33115 -2.15172 168 179 185 
-0.105781 0.462474 -3.01461 96 98 95 
0.219753 0.881557 -5.71331 74 72 73 
-1.31349 -1.44695 9.06208 68 62 46 
-0.257437 0.217946 -1.70381 174 183 190 
-0.182005 0.24662 -1.9238 168 186 188 
-0.230308 0.363873 -2.75784 63 65 60 
-0.152337 0.425997 -3.25681 77 70 51 
-1.31638 -1.0149 6.85706 66 72 68 
-0.261606 0.190334 -1.6839 120 128 131 
-0.218103 0.201821 -1.84287 160 168 171 
-0.248132 0.134869 -1.71322 132 137 140 
-0.276569 0.134266 -1.71178 166 171 174 
-0.304916 -0.176705 -4.65405 115 120 124 
-0.474959 -0.150136 -2.73151 133 138 134 
-0.211231 -0.459921 -7.01552 126 131 135 
-0.996727 -0.33737 -1.51483 71 76 79 
-0.926783 -0.253074 -1.10553 46 50 53 
-0.942896 -0.258015 -1.13152 43 47 50 
-0.95254 -0.301629 -1.33253 68 73 76 
-0.976726 -0.326229 -1.41379 64 69 72 
-1.03529 -0.454044 -1.96868 57 63 63 
-0.903289 -0.215958 -0.882873 175 166 161 
-0.929889 -0.242608 -1.00236 140 146 146 
-0.191795 0.429886 -1.66083 107 107 105 
-0.269518 0.235768 -1.50792 187 195 198 
-0.153909 0.307782 -2.0028 168 182 185 
-0.172216 0.335335 -2.16012 170 181 187 
0.151923 0.875824 -5.38368 40 39 37 
0.106046 1.1957 -8.09104 89 90 85 
-0.133369 0.442485 -3.22997 226 223 208 
-9.6842 -12.7026 85.3107 90 89 85 
-0.208497 0.373775 -2.83345 63 65 60 
-0.200702 0.188632 -1.64821 124 129 133 
-0.0833143 0.563093 -4.3419 87 78 61 
-1.18067 -1.00363 7.03588 139 136 117 
-0.245187 0.217343 -1.95912 166 180 181 
-0.0486664 0.81405 -6.53237 219 217 205 
29.8022 44.0809 -337.979 189 193 204 
2.04634 3.44969 -30.6602 114 119 123 
-1.87329 -2.04102 18.4552 118 124 124 
-1.90192 -1.63466 20.8058 136 145 154 
-0.439258 -0.0475454 -3.50967 152 157 151 
-0.41427 -0.064179 -2.98952 134 134 134 
-0.483918 -0.112623 -2.89972 130 129 111 
-0.19992 -0.204562 -5.09053 124 124 132 
-0.91937 -0.245558 -1.11713 134 138 137 
-0.937517 -0.278472 -1.21334 40 41 45 
-0.973492 -0.341099 -1.48216 68 73 76 
-0.903215 -0.211935 -0.868233 159 145 142 
-0.997734 -0.11163 -0.332882 207 205 210 
-0.0574076 0.638848 -2.19094 98 100 95 
1.191 3.87086 -15.1542 255 255 255 
-0.144343 0.389302 -2.3142 224 227 218 
-0.239295 0.245674 -1.58135 172 179 185 
-0.244479 0.261516 -1.70602 173 180 190 
-0.130766 0.352741 -2.26831 170 181 187 
2.69668 4.19177 -27.8638 77 77 75 
-4.48363 -5.76111 38.7656 161 160 156 
-2.40653 -2.63347 17.7128 82 87 80 
-0.191395 0.351647 -2.72195 82 84 79 
-0.252865 0.169271 -1.54745 123 128 132 
-0.205984 0.20193 -1.78874 130 138 141 
0.0192181 0.870659 -6.99148 219 217 205 
0.772552 1.48289 -13.4341 131 138 146 
-5.55098 -6.52654 59.3114 123 130 136 
-0.308157 0.133757 -1.6525 176 181 185 
-0.263074 0.153527 -1.91512 175 180 186 
-0.382245 -0.13973 -3.49943 130 128 107 
-0.324733 -0.17046 -4.37852 108 116 119 
-0.258828 -0.255544 -6.03469 107 115 118 
0.714485 -0.910218 -24.7703 151 161 163 
-0.985626 -0.339314 -1.55935 117 122 125 
-0.0378394 0.678476 -2.6695 140 141 146 
-0.130024 0.490904 -2.01795 224 227 218 
-0.10266 0.533987 -3.0007 212 217 213 
-0.25129 0.256778 -1.68632 173 180 190 
-0.169143 0.299987 -1.98115 169 179 188 
-0.245523 0.293574 -1.95568 169 184 191 
0.273539 0.940373 -5.90527 32 30 33 
-0.324991 0.166758 -1.52906 130 138 141 
-0.275433 0.137207 -1.96259 232 234 221 
-0.143969 -0.077081 -5.50518 150 159 156 
-0.416215 -0.154445 -3.84985 107 112 116 
-0.937319 -0.247627 -1.06236 45 49 52 
-0.912468 -0.227237 -0.812249 203 194 185 
-0.915227 -0.251827 -0.903359 201 196 190 
-0.135099 0.608903 -2.00115 161 161 161 
-0.0850559 0.520688 -2.12847 221 224 215 
-0.139645 0.514835 -2.85097 223 228 224 
0.130376 0.853807 -5.21432 57 56 52 
-0.259468 0.326447 -2.50175 72 76 61 
0.0657809 0.654642 -4.92449 95 89 75 
0.330475 1.15594 -10.3103 120 124 133 
1.33181 2.42263 -21.4687 159 164 168 
-5.9026 -7.37841 66.773 128 135 141 
-0.472829 -0.132612 -2.35916 147 155 158 
-0.930932 -0.219787 -1.00481 97 83 82 
-0.90337 -0.226267 -0.910376 175 178 169 
-0.913765 -0.23614 -0.856935 190 191 183 
-0.0651658 0.677831 -2.68544 145 148 153 
0.111062 0.939914 -5.27456 208 210 207 
0.140112 0.856494 -5.2288 93 92 88 
-0.401741 0.458681 -2.88409 177 171 155 
-0.283417 0.309954 -2.43552 75 77 74 
0.523978 0.961127 -7.08166 168 162 150 
1.39584 2.22289 -16.8236 196 197 191 
0.858784 1.59885 -14.5679 134 145 151 
-0.278982 -0.236819 -4.91509 122 130 133 
-0.392444 -0.232833 -4.86145 120 128 131 
-0.880902 -0.178464 -0.719738 149 152 159 
-0.918819 -0.217417 -0.802999 157 160 151 
-1.10906 -2.03689 4.70142 137 138 143 
-1.08326 -1.93904 4.50685 129 130 135 
-0.970716 -1.28067 2.98808 111 111 111 
-1.19582 -2.35341 5.49191 126 126 136 
-1.02057 -1.51926 3.5667 156 157 161 
-1.16288 -1.85172 4.41439 135 137 150 
-1.00281 -1.41637 3.43746 148 152 153 
-1.24021 -2.69405 6.78666 223 222 218 
-1.00783 -1.57895 4.1702 223 223 221 
-0.906539 -0.242799 -0.852591 196 188 177 
-0.90897 -0.201944 -0.829937 169 159 150 
-0.998185 -0.316133 -1.43952 51 55 58 
0.0542974 0.763187 -5.02857 103 104 99 
-0.3384 0.538917 -3.21235 63 59 58 
-1.1726 -2.52906 5.83478 172 173 178 
-1.20602 -1.65901 4.33301 159 154 160 
-0.921062 -0.281925 -1.1328 82 91 90 
-0.89976 -0.16523 -0.693156 111 109 114 
-0.876564 -0.192619 -0.79497 72 70 75 
-0.925747 -0.343038 -1.43464 55 53 56 
-0.93309 -0.24319 -1.02746 60 63 68 
-1.06346 -0.46875 -2.09777 40 44 45 
-0.952824 -0.240707 -1.07877 35 40 44 
-0.987419 -0.297246 -1.34836 72 73 77 
-0.951687 -0.291118 -1.31301 67 71 72 
-0.93684 -1.15748 2.94584 233 228 222 
-1.13223 -1.6619 4.13871 114 111 104 
-1.23 -2.22234 5.53041 150 149 154 
-0.946957 -1.16092 2.91054 116 113 108 
0.0934307 0.953266 -5.416 137 127 117 
-0.279559 0.60043 -3.58215 228 220 209 
-0.925384 -1.15366 2.88566 138 138 136 
-1.62273 -2.06025 14.1151 69 70 72 
0.65151 1.76755 -12.0011 78 76 77 
-0.984145 -1.14856 2.7893 153 156 165 
-1.04901 -1.35408 4.18919 138 131 125 
-1.10344 -2.00234 4.84266 142 144 156 
-0.943104 -1.46456 3.55544 253 253 253 
0.479946 1.22054 -10.8711 124 131 137 
-1.07301 -1.69214 4.01711 120 124 125 
-1.3349 -2.99335 7.7702 108 112 113 
-0.322846 0.716585 -3.11235 156 158 153 
-1.01936 -1.49675 4.04863 166 172 172 
-0.960899 0.0368805 -1.01459 117 102 79 
-1.00591 -1.38259 3.74079 172 176 175 
-0.913585 -1.25737 3.44971 225 221 222 
-1.01686 -1.42118 4.30404 174 173 168 
-0.903576 -1.0433 3.1262 235 237 234 
-0.185086 0.51851 -3.95613 81 68 51 
-0.904426 -0.824089 2.54704 228 222 208 
-0.237288 0.536231 -3.74199 196 186 177 
-0.258017 0.931962 -5.23565 94 87 71 
-0.26473 -1.16908 -18.0561 146 143 128 
-0.917659 -1.23911 3.03926 218 220 219 
-0.962672 -1.09564 3.77212 243 228 207 
0.395896 0.123056 -6.82915 208 203 183 
0.658974 1.56703 -11.5941 159 155 154 
-0.970774 -1.26245 3.5592 219 220 212 
3.46636 -0.892186 -30.0303 230 233 240 
0.359875 0.156766 -6.78095 212 200 176 
-0.992237 -1.57336 3.81818 137 140 145 
-1.14303 -1.98745 4.58457 172 173 178 
-1.17981 -2.21587 5.13822 154 154 162 
-1.08539 -1.69127 3.93516 105 105 113 
-1.02004 -1.32356 3.09959 156 157 161 
-0.960469 -1.37521 3.29451 100 100 100 
-1.19467 -2.22332 5.30084 219 222 231 
-1.07441 -1.45997 3.48477 151 154 163 
-1.01448 -1.34174 3.23185 135 138 147 
-0.947912 -1.20448 2.91987 251 251 251 
-1.15707 -2.09672 5.05754 131 132 136 
-1.0947 -1.67917 4.05265 142 144 156 
-0.985692 -1.18711 2.88527 146 149 156 
-0.937918 -1.0686 2.62172 213 215 214 
-1.29269 -2.95797 7.2126 210 211 206 
-0.921319 -1.19198 2.97979 138 138 136 
-0.929128 -1.27549 3.24039 227 224 219 
-1.22857 -2.60458 6.5813 230 226 223 
-1.34626 -3.03677 7.85835 221 225 226 
-1.00071 -1.62234 4.39435 172 176 175 
-1.07868 -1.48899 4.22307 172 170 171 
-1.16963 -2.32517 6.73692 183 184 179 
-1.20397 -3.28337 9.50967 223 224 218 
-0.964034 -1.087 3.36976 155 148 132 
-0.971726 -1.21796 3.94772 147 140 122 
-0.969231 -1.18556 4.06104 229 224 220 
0.45752 2.55831 -10.0956 250 251 255 
0.125175 1.82833 -7.88362 128 122 100 
-0.366384 0.601291 -2.93804 53 60 66 
1.16387 1.9232 -9.64468 35 40 46 
-0.323974 0.588756 -3.20008 106 108 107 
0.0456775 1.28521 -7.26099 98 89 74 
-0.0344881 0.843991 -4.78966 166 158 147 
-0.285391 0.588439 -3.37783 219 224 218 
-0.377467 3.36841 -20.6309 141 133 120 
-0.220122 0.61969 -3.71522 36 36 34 
-0.111443 0.72523 -4.35274 230 223 217 
-15.0715 -15.8701 96.7176 143 133 123 
-1.55367 -2.31959 14.4765 95 91 79 
-0.000817615 0.753473 -4.88179 228 225 216 
-1.3979 -1.25385 8.55353 67 68 72 
8.04333 9.4658 -64.4011 88 86 87 
1.30566 1.98092 -15.4929 219 212 194 
-412.803 -556.039 4968.27 129 133 144 
-0.0142337 0.196353 -4.87039 145 143 130 
-0.147761 -0.188131 -5.8885 217 222 228 
-3.83517 0.708346 17.3358 160 165 169 
-0.935584 -0.201073 -0.935075 141 139 140 
-0.905587 -0.152506 -0.651948 92 91 99 
-0.954907 -0.299282 -1.26356 87 86 84 
-1.03481 -0.490904 -2.06566 64 66 65 
-0.922908 -0.190999 -0.790148 125 122 115 
-1.02913 -0.429949 -1.73052 61 65 68 
-0.901357 -0.238018 -0.887357 188 184 175 
-0.878604 -0.255699 -0.85002 172 172 174 
-0.902583 -0.297946 -0.83217 106 87 81 
-1.07992 -1.76515 4.20231 139 143 144 
-0.966502 -1.26349 3.02579 126 126 126 
-1.2087 -2.24969 5.41228 255 255 251 
-1.17282 -2.40961 5.79842 128 129 134 
-1.10561 -1.91607 4.61312 142 144 156 
-1.03389 -1.53932 3.721 250 254 255 
-1.32523 -3.37265 8.39822 154 154 156 
-1.13678 -1.87405 4.67094 115 112 103 
-1.17044 -1.86257 4.72621 228 223 217 
-1.32018 -2.88953 7.45964 118 122 123 
-1.20157 -1.58927 4.14275 159 154 160 
-1.01705 -1.59197 4.22568 237 239 236 
-1.16448 -1.79834 4.9193 234 231 226 
-1.08765 -2.06312 5.82343 172 171 169 
-1.30379 -5.3567 15.4753 229 228 223 
-1.4747 -3.30587 10.1386 132 125 115 
-1.01786 -1.15758 3.60623 221 218 211 
-0.998973 -1.48529 5.0961 227 220 210 
-5.31662 -4.33921 20.8016 66 67 69 
-0.269298 0.695962 -3.42527 58 57 65 
0.180646 1.03565 -5.87077 162 149 140 
-0.177437 0.678339 -3.90062 224 227 218 
-1.4796 -2.12679 13.1585 82 76 64 
0.0659367 1.15661 -7.87186 78 76 77 
-3.67354 -3.86389 26.3981 76 80 81 
-0.337979 0.425136 -3.21266 116 104 92 
-0.253519 0.67996 -5.2346 207 201 189 
0.622916 1.94096 -17.0201 113 118 124 
0.170037 0.984265 -8.77425 127 134 140 
-7.7961 -9.34611 84.2453 131 135 146 
5.77748 6.47159 -84.5653 141 146 150 
-1.0312 0.138695 -4.86663 207 207 195 
-0.939666 -0.195367 -0.906858 144 144 144 
-0.960273 -0.24065 -1.09202 152 153 155 
-1.00037 -0.32949 -1.47995 63 62 68 
-1.03848 -0.411047 -1.84243 47 55 57 
-0.938862 -0.217743 -0.96903 26 36 37 
-0.962312 -0.261174 -1.16044 68 74 74 
-0.982226 -0.334375 -1.42589 78 84 82 
-1.03967 -0.468251 -1.99159 60 64 63 
-0.926031 -0.173315 -0.722648 188 181 173 
-0.910457 -0.228748 -0.939926 166 166 156 
-1.03236 -0.402971 -1.62454 58 62 65 
-0.896601 -0.26303 -0.924571 203 197 185 
-0.931238 -0.221766 -0.790267 197 187 178 
-1.18367 -1.64076 4.08352 238 237 243 
-1.21949 -2.33354 5.93085 228 227 225 
-1.25048 -2.0357 5.24282 221 225 226 
-1.01658 -1.53814 4.0015 115 101 92 
-1.01582 -1.49538 3.96068 237 239 236 
-1.16091 -1.61821 4.40328 233 230 225 
-1.91578 -0.717518 4.13091 217 220 211 
-1.36762 -1.50075 9.24854 74 71 56 
4.99609 8.79881 -59.4812 76 78 75 
0.151688 0.975624 -8.60483 131 138 144 
-3.67815 -2.97619 26.362 107 112 118 
-1.72347 -0.972717 8.63192 117 121 132 
-0.924224 -0.260492 -1.13445 35 45 46 
-0.971248 -0.371598 -1.59192 75 75 75 
-0.887581 -0.268564 -1.0958 178 181 172 
-0.924542 -0.255494 -1.055 153 149 148 
0.0302822 1.30503 -7.46782 108 99 82 
-0.305034 1.05519 -7.10563 76 78 75 
0.898171 3.66283 -24.7205 75 76 80 
0.668582 1.41894 -12.6641 124 131 137 
-3.41672 -2.618 23.4302 123 128 134 
-19.4698 -26.4867 239.581 130 134 145 
0.137296 0.68322 -8.65092 152 157 163 
-0.945421 -0.275057 -1.25473 130 128 131 
-0.992777 -0.282154 -1.30487 140 144 145 
-0.951103 -0.238315 -1.04263 39 43 46 
-0.921914 -0.238917 -0.846522 196 187 178 
0.146214 1.84089 -7.46912 139 142 149 
0.195386 1.74269 -11.643 84 85 80 
2.42604 5.68923 -38.0594 149 149 147 
1.83272 3.13952 -27.4326 108 113 119 
-1.89664 -0.717847 6.53903 139 148 153 
-1.92932 -1.30322 11.9451 131 135 144 
4.25734 3.16139 -39.0005 153 160 166 
-2.10545 0.618012 15.2952 136 137 139 
-0.913308 -0.252968 -1.14941 144 143 141 
-0.94671 -0.35838 -1.55482 68 74 74 
-0.92641 -0.277452 -1.19552 48 43 50 
0.206895 2.14054 -8.331 255 255 255 
1.048 3.2045 -13.046 143 148 154 
2.83796 3.97163 -35.3866 119 126 132 
-0.118013 1.37114 -12.4084 132 137 143 
-1.10727 -1.85259 4.27641 110 109 114 
-1.18742 -2.23902 5.22868 136 135 141 
-1.07683 -1.85726 4.3241 152 152 154 
