ply                 
format ascii 1.0    
element vertex 1288
property float x    
property float y    
property float z    
property uchar red  
property uchar green
property uchar blue 
end_header          
-10.3151 -25.2778 148.194 215 219 220 
22.5868 -25.7189 151.244 150 149 144 
10.6832 -24.4514 153.295 103 100 85 
-11.8426 -23.1693 148.858 76 77 81 
9.19532 -22.2528 153.918 118 117 112 
24.9204 -20.5566 151.684 62 64 61 
1.47923 -16.963 148.333 116 125 132 
5.88681 -16.2012 147.747 125 138 146 
8.80031 -16.1726 147.27 129 138 147 
23.5362 -16.8825 152.491 201 205 206 
24.5231 -14.6046 144.868 114 117 124 
1.48806 -13.3563 148.986 130 141 145 
8.83099 -13.3054 147.757 133 147 156 
12.6117 -9.21248 140.687 133 133 125 
23.2005 -3.54164 133.125 88 83 77 
0.0101094 -2.22414 144.127 84 89 92 
2.16504 0.600419 144.233 90 94 103 
-9.67592 1.94401 139.046 149 159 171 
2.17151 2.73949 144.612 83 93 102 
5.0314 2.70578 144.064 102 112 121 
13.3588 19.8985 121.885 127 127 129 
16.303 19.7662 121.228 120 114 114 
-0.561963 21.312 115.945 158 159 151 
-0.564221 24.2416 116.391 193 190 183 
3.024 30.4964 120.988 137 137 139 
17.183 -38.1236 158.34 230 229 227 
17.2715 -33.5799 159.139 229 228 226 
-14.7021 -36.6526 178.141 171 171 171 
-13.9808 -32.5281 169.234 105 105 113 
-1.58416 -23.4514 144.674 120 112 99 
10.1285 -23.827 151.794 93 90 73 
-1.58636 -21.7796 144.979 98 93 90 
9.24979 -22.0817 152.242 118 117 112 
-0.720928 -16.7155 145.767 110 119 126 
6.20401 -15.8009 144.794 127 140 148 
14.9161 -1.14583 130.204 220 217 210 
-2.37695 1.39694 141.193 56 65 70 
13.4378 1.95487 130.948 166 162 150 
14.5569 20.6498 120.755 52 52 54 
-0.574884 21.8018 118.611 158 159 151 
-0.577119 24.6811 119.057 193 190 183 
-1.03971 -42.5345 125.053 137 136 142 
-0.191389 -41.2662 121.16 83 80 97 
0.829222 -42.4976 125.087 116 115 121 
4.41679 -42.7449 126.683 129 127 138 
2.70746 -42.0446 124.827 123 123 131 
0.62986 -42.3776 126.56 89 91 106 
-1.02248 -41.6762 124.687 126 131 135 
1.03348 -41.094 123.13 213 213 221 
2.52939 -41.6912 126.242 183 186 191 
4.56399 -41.0858 124.599 130 132 144 
-1.00193 -39.9481 121.454 251 255 255 
-0.208171 -40.1846 123.079 132 134 147 
1.01867 -39.3019 120.645 254 255 255 
2.45896 -39.9446 122.875 249 254 255 
3.98905 -40.7348 126.013 126 133 141 
4.62518 -40.7646 125.839 251 255 255 
-1.63593 -39.1078 122.816 129 137 139 
5.51476 -39.0114 122.459 217 217 217 
-1.22689 -38.4367 122.674 213 218 221 
4.39513 -39.3533 125.672 131 131 129 
-1.83737 -38.2299 122.619 136 136 136 
4.69368 -38.1544 122.268 125 126 121 
1.84044 -35.3964 121.666 179 178 183 
2.23361 -35.3267 121.801 172 171 176 
-0.804662 -34.1496 120.554 115 117 116 
4.65835 -34.4313 121.376 118 120 119 
1.01706 -34.0594 121.524 222 224 223 
-2.84102 -33.208 122.501 141 141 143 
-3.76512 -31.4291 119.132 137 137 139 
6.68798 -32.0416 121.469 152 153 155 
-2.3871 -31.2471 119.393 164 164 166 
-4.95974 -30.566 119.058 134 134 136 
-3.65094 -31.1433 122.337 137 138 133 
1.01127 -30.5081 122.276 145 145 143 
3.21898 -29.9631 120.355 146 146 144 
7.49372 -29.9653 121.56 143 143 143 
-6.9373 -28.914 119.168 140 140 142 
1.60543 -28.6769 120.253 164 163 159 
2.404 -28.6489 120.216 167 166 162 
-7.91898 -26.7836 118.857 144 141 136 
-11.5028 -24.7408 116.96 131 131 131 
-12.3536 -23.6752 115.757 114 117 124 
-25.0558 -25.8552 130.689 152 158 158 
-23.415 -25.1401 128.894 142 146 145 
-22.3035 -24.5453 128.728 155 156 158 
31.2556 -22.7442 122.536 247 247 255 
-13.8008 -21.3626 116.612 150 149 145 
2.57175 -20.5875 118.144 164 161 156 
-19.0821 -17.0806 115.714 141 142 134 
-20.0175 -16.6226 114.405 216 220 223 
-1.51457 -16.568 113.945 125 122 117 
-0.947252 -16.2833 113.629 224 221 216 
-20.0405 -16.2263 115.639 53 53 51 
-13.3544 -15.8865 112.919 124 121 106 
6.46819 -16.4283 117.694 204 201 196 
-1.66086 -15.2548 110.509 179 173 161 
18.2914 -16.7762 120.531 155 151 150 
-20.2398 -15.2283 116.793 61 61 59 
-19.3994 -14.8631 114.129 227 227 225 
18.7858 -15.2362 116.11 126 123 118 
6.98468 -14.8518 116.187 195 193 181 
25.3925 -15.3031 119.908 40 44 45 
-8.34642 -14.5435 116.445 132 138 136 
-3.03992 -14.4718 114.554 87 90 79 
26.465 -15.2879 121.145 221 227 223 
17.3814 -14.5552 117.101 91 88 83 
-12.6575 -14.0861 115.135 108 117 124 
18.3123 -14.3935 116.766 91 88 83 
-8.91946 -13.9644 116.345 89 99 100 
-7.93458 -14.024 116.223 79 87 89 
-19.1369 -13.1613 112.584 136 134 122 
-13.2674 -12.8882 113.72 150 161 157 
-19.9424 -12.8969 115.077 92 89 80 
23.196 -13.4237 119.965 70 70 68 
17.3367 -13.1309 118.112 109 106 101 
6.25653 -12.5792 117.165 119 121 108 
11.5276 -12.5942 119.17 70 75 79 
12.6957 -12.5478 118.972 60 64 73 
-2.71619 -11.9472 116.724 192 188 185 
23.323 -12.6312 122.671 215 215 213 
26.5803 -12.3496 121.659 214 220 216 
25.7939 -12.0568 120.829 93 95 94 
3.21628 -4.93894 50.7325 189 195 207 
6.81642 -11.1697 116.725 196 199 192 
17.4776 -11.3837 119.123 147 146 141 
23.3578 -11.6224 120.741 182 178 175 
-12.9693 -10.7905 114.515 115 121 133 
-7.8991 -10.5993 115.6 101 116 123 
-3.87182 -10.4031 116.462 118 131 137 
26.8815 -10.4326 119.44 221 224 215 
7.84611 -9.68302 117.584 95 102 112 
11.6357 -9.36869 118.232 105 114 121 
16.6312 -9.32888 120.149 105 116 122 
-13.2553 -7.53249 115.291 142 150 152 
7.78885 -6.33781 116.691 130 141 145 
-2.84457 -6.05257 114.264 222 218 215 
16.4773 -5.83082 117.607 139 148 157 
6.83137 -5.58173 116.936 211 213 208 
-1.53234 -4.8167 115.058 112 110 111 
3.89047 -0.996195 105.881 119 119 111 
4.91763 -0.952246 105.262 133 134 126 
5.10891 -0.449587 105.558 87 83 72 
4.75847 -0.282905 105.576 81 77 66 
-5.90091 0.0299789 114.423 218 218 208 
-19.5591 0.52279 112.857 152 156 167 
28.3817 0.382368 116.577 98 99 93 
-7.0612 0.760454 114.509 117 117 117 
-17.6468 0.836118 112.681 171 171 161 
4.22878 0.833859 105.345 179 176 169 
-17.7981 1.73942 111.283 130 132 121 
-8.66942 1.78716 115.713 133 143 145 
-7.59498 1.82501 116.969 78 85 91 
-7.03663 1.79439 114.222 98 106 109 
-17.8057 2.40673 112.469 121 123 112 
-16.0921 2.52707 112.311 154 163 168 
-7.2231 2.82004 114.08 91 98 104 
29.028 3.22519 115.28 145 146 138 
30.1915 3.14164 110.414 61 61 63 
3.71052 4.64064 105.809 174 172 159 
-7.17826 5.32622 113.485 95 105 104 
4.4937 5.16796 103.461 255 255 245 
3.17949 5.49286 105.705 192 192 184 
9.47161 6.01235 115.859 150 153 146 
7.60159 5.66874 105.941 191 188 181 
10.9196 6.27971 116.903 110 118 120 
14.8755 6.39007 115.834 97 105 107 
26.6554 6.46114 114.995 105 108 99 
28.4062 7.30133 112.821 234 230 227 
23.8129 11.0071 86.576 43 72 80 
-7.9801 15.8143 114.083 53 66 75 
7.28762 19.2705 101.612 120 116 117 
18.9041 19.9041 104.989 116 110 110 
-9.97799 19.3347 99.8105 44 47 54 
-0.83987 19.5837 101.27 52 53 58 
10.463 19.8868 102.871 40 51 53 
7.7744 19.8835 101.335 38 46 48 
16.5238 20.2111 103.231 30 40 42 
-8.11261 20.2459 99.3713 69 72 79 
-2.02097 20.7227 101.278 108 112 121 
7.7603 20.6683 101.15 55 65 66 
-14.2156 20.5308 99.1979 180 174 174 
12.711 21.2004 103.013 77 88 92 
-13.0768 20.5514 98.0826 116 121 117 
18.6033 21.5959 103.317 128 138 137 
21.035 22.3208 103.423 179 170 171 
-13.5551 21.4088 98.0084 120 129 124 
-12.8905 21.3986 97.9225 141 147 143 
22.3955 23.3139 102.551 182 173 174 
20.8732 23.6995 101.802 22 14 12 
7.53438 28.5729 100.446 168 153 158 
-16.3341 30.7785 97.0315 66 54 58 
-7.04994 26.0367 81.3387 148 134 123 
-3.68166 26.7504 81.8001 79 66 60 
-0.658316 -42.57 124.704 96 94 107 
0.584099 -42.5453 124.726 113 112 120 
4.1361 -42.6405 126.366 94 94 106 
2.60563 -41.523 126.31 203 208 212 
-0.657338 -40.678 124.281 152 156 167 
0.0856216 -40.6619 124.29 126 128 141 
4.37545 -41.256 126.031 149 156 166 
3.869 -40.7221 125.904 129 138 145 
5.52943 -39.4901 123.802 217 217 217 
-0.40475 -38.7248 122.109 117 114 121 
-1.15232 -38.1525 122.168 213 218 221 
4.35835 -39.3401 125.565 131 131 129 
5.35531 -39.0348 125.475 158 158 158 
0.554624 -35.0174 119.601 108 106 107 
-1.13544 -35.2905 122.709 213 221 224 
1.56739 -35.0885 122.811 147 149 148 
-2.12583 -34.302 124.059 137 137 139 
6.66224 -32.2805 121.97 129 130 132 
3.00678 -30.3387 121.649 155 155 155 
7.46715 -30.3783 123.187 157 157 157 
1.53692 -29.5335 121.681 234 234 236 
-9.25298 -27.528 119.797 120 126 126 
5.29597 -12.5835 55.9502 122 121 126 
-10.3054 -26.0739 117.997 182 183 185 
-12.4639 -23.7188 116.048 114 117 124 
-12.9209 -23.4866 115.995 119 123 134 
-24.5365 -25.7777 132.371 160 164 163 
-14.9019 -20.7045 117.023 144 141 134 
-19.2154 -17.1864 116.278 141 142 134 
-1.76626 -16.8171 115.578 121 121 113 
-0.826291 -16.1409 112.807 227 224 219 
-19.8627 -15.9231 114.59 48 48 46 
-19.1796 -15.9111 114.608 208 209 203 
18.3195 -16.9641 121.541 149 145 144 
-2.19327 -15.6547 113.786 95 89 77 
7.51576 -15.5023 112.625 114 115 110 
-1.07082 -15.6095 115.26 141 138 131 
-19.3803 -14.9802 114.444 228 228 226 
7.48866 -15.0184 115.649 90 88 75 
-19.7945 -14.6221 114.259 106 106 104 
6.89768 -15.0296 117.362 152 150 138 
-19.6296 -14.4861 115.92 116 114 102 
-13.319 -14.6671 117.503 87 90 95 
-8.60144 -14.6556 117.286 125 131 129 
-3.13073 -14.5443 115.098 87 90 79 
23.63 -15.2022 121.371 93 92 100 
-12.4683 -14.1056 114.101 85 92 98 
17.1898 -14.5407 117.109 96 93 88 
-9.29764 -14.1947 117.212 79 89 88 
-19.467 -13.3094 113.628 133 131 119 
-3.88957 -13.6726 116.73 81 89 92 
23.7821 -13.9418 120.907 208 208 208 
5.79828 -13.5955 118.804 147 147 135 
-19.7411 -12.766 113.952 92 89 80 
12.281 -13.4185 119.47 127 127 119 
23.2904 -13.4683 120.857 70 70 68 
7.7648 -13.2443 119.797 68 72 75 
-3.16804 -12.5673 116.318 141 142 146 
6.21156 -12.5317 117.612 118 120 107 
-2.69378 -11.8859 116.084 192 188 185 
3.18866 -4.95966 50.8413 189 195 207 
6.70868 -11.3881 118.115 196 198 187 
17.3047 -11.2673 117.946 147 146 141 
-13.0286 -10.8036 115.04 115 121 133 
-7.72272 -10.4768 114.74 117 128 134 
16.8385 -10.7405 119.644 163 171 182 
26.953 -10.5547 119.917 221 224 215 
7.72458 -9.59013 119.215 128 134 150 
11.4725 -9.46161 118.595 107 116 123 
12.8588 -9.27989 118.184 114 124 134 
-8.02013 -7.32217 115.713 140 148 151 
-4.12517 -7.2066 116.923 129 142 150 
11.6146 -6.12178 117.612 113 117 126 
16.4095 -5.94516 118.246 132 142 152 
-2.00062 -2.96741 115.738 144 142 130 
8.26173 -1.79907 107.581 128 130 127 
0.510134 -0.671901 107.263 76 78 67 
4.98907 -0.39518 106.795 88 84 73 
-6.49243 -0.0231728 117.506 230 230 222 
29.9416 0.377226 115.697 73 74 68 
-17.817 0.762239 113.256 168 171 160 
-8.10947 1.80636 113.8 83 93 95 
-18.2283 2.05808 113.02 148 150 139 
-7.19159 2.82668 113.564 91 98 104 
-5.62356 5.51118 114.082 173 174 168 
4.44326 5.15515 103.939 255 255 245 
27.0856 6.70733 116.373 97 100 91 
18.6804 19.697 103.359 132 128 127 
-1.94655 19.5231 100.869 76 81 85 
12.5395 20.0073 103.865 50 59 64 
0.682193 19.7911 101.544 49 50 55 
7.85784 19.9641 102.423 42 50 52 
9.4566 19.9038 101.998 44 56 56 
16.5211 20.2388 102.794 30 40 42 
-14.1916 20.4442 99.0185 152 143 144 
-12.5807 20.3295 98.8224 158 143 146 
1.06909 20.9452 99.9445 149 152 157 
22.3267 22.106 103.021 170 171 166 
-13.5628 21.5593 98.7676 155 166 160 
-13.1609 21.5531 98.7157 147 158 152 
20.9646 24.8187 102.412 183 182 178 
-10.4453 27.828 97.3191 147 141 145 
7.50244 28.562 100.463 168 153 158 
-0.553475 -42.1475 123.21 96 94 107 
4.01502 -43.3396 127.861 143 143 143 
-1.45873 -41.3296 125.121 247 253 251 
3.04119 -40.6426 124.766 121 130 137 
3.6377 -40.6255 124.761 114 123 132 
-1.7254 -39.6143 122.629 199 205 205 
5.60682 -38.8485 122.215 226 226 226 
4.97712 -40.2921 128.798 150 150 150 
5.09798 -37.6627 124.028 226 226 226 
-0.241795 -35.9043 123.674 112 112 114 
1.52864 -35.1214 123.092 175 177 176 
-2.03471 -34.2773 123.534 125 125 127 
-3.69263 -31.799 119.701 171 171 173 
6.71789 -32.078 121.228 129 130 132 
-5.16782 -30.9512 120.72 136 136 138 
-3.72149 -30.6088 120.651 151 152 147 
0.896188 -30.1664 120.485 160 160 158 
3.21089 -29.8749 120.133 146 146 144 
7.63912 -29.9451 121.974 148 148 148 
-12.5453 -23.7883 116.376 124 128 137 
31.976 -23.8377 127.941 245 248 253 
6.66448 -15.916 115.063 199 196 189 
7.57515 -16.1508 116.204 130 127 120 
7.69734 -14.8963 114.098 84 80 69 
18.8061 -15.3512 116.688 126 123 118 
6.45021 -14.7625 115.98 120 118 106 
18.2222 -14.9304 120.243 106 103 98 
24.9912 -14.6231 118.16 43 47 48 
-9.1064 -14.0687 115.483 84 93 92 
-4.25888 -14.143 119.201 72 78 78 
-19.5499 -12.7183 113.358 92 89 80 
12.302 -13.319 118.821 127 127 119 
7.78887 -13.202 119.435 68 72 75 
12.8434 -12.7136 118.56 58 61 66 
22.9099 -12.7265 120.579 213 213 211 
26.191 -12.5627 119.737 220 226 222 
-2.75355 -11.9755 116.478 192 188 185 
16.1408 -12.1215 117.658 73 78 84 
-12.9422 -10.6665 115.054 119 125 137 
-9.0469 -10.4199 114.744 107 122 129 
-4.13847 -10.3156 116.21 123 138 145 
16.3039 -9.14548 118.826 111 124 130 
-7.61978 -7.06511 113.979 138 153 160 
-4.19833 -7.22932 117.617 129 142 150 
-2.93945 -6.11125 112.638 218 218 216 
11.4749 -6.29916 119.042 122 126 135 
12.9197 -6.13229 116.64 118 127 136 
16.4514 -5.98958 117.829 139 148 157 
-1.609 -4.6762 114.711 95 93 94 
3.59269 -0.436045 105.925 77 75 63 
5.13495 -0.385907 106.352 87 83 72 
28.8077 0.924148 118.685 97 98 92 
28.4983 1.477 118.578 187 188 182 
-7.46197 3.1259 115.717 94 101 107 
-5.67296 5.37979 113.413 167 168 162 
-0.476155 5.16993 105.676 163 163 153 
10.8745 6.04951 115.711 110 118 120 
6.7824 2.55745 48.5983 106 120 121 
8.21475 2.6825 49.4835 105 114 113 
26.8324 6.5752 113.917 91 94 85 
7.515 19.0541 100.591 129 133 132 
18.6876 19.788 103.628 132 128 127 
10.7164 19.5641 101.165 54 68 71 
12.4963 20.1057 103.855 50 59 64 
13.7229 19.7402 101.863 50 59 64 
7.8553 20.0152 101.872 38 46 48 
17.7982 20.1119 101.4 24 29 33 
7.8429 20.6967 101.709 50 60 61 
9.50903 20.6287 101.262 51 63 63 
-14.3639 20.6193 99.9558 180 174 174 
-12.4805 20.3083 98.3439 177 165 167 
21.4206 23.4963 103.623 174 173 171 
22.201 23.2843 102.633 180 176 175 
-0.273783 -42.5138 124.711 100 97 114 
0.441363 -42.1084 124.634 78 83 102 
-1.67174 -41.0654 124.054 249 254 250 
-0.247927 -41.0367 124.078 124 130 146 
3.30988 -40.5598 123.997 119 127 138 
4.83825 -41.0556 126.697 249 254 255 
-1.00529 -40.326 126.798 161 165 168 
4.71378 -38.5806 123.51 150 150 150 
-2.42408 -38.8722 126.14 241 241 241 
1.86991 -36.3684 123.021 220 219 224 
-13.5763 -17.4716 112.984 125 126 120 
7.38458 -15.8475 115.019 122 119 112 
-2.57057 -15.7144 116.056 118 114 102 
-1.24298 -15.3664 116.388 127 124 117 
7.70104 -15.1543 114.804 83 80 71 
17.3898 -14.5072 117.733 87 84 79 
-4.33711 -14.2105 118.355 80 82 79 
23.0208 -14.0112 118.763 217 217 215 
5.82963 -13.4837 116.937 109 109 97 
24.5045 -13.9201 121.029 30 31 36 
-2.26964 -13.2579 117.828 137 133 124 
7.8225 -13.0665 116.582 66 65 61 
6.15011 -12.4418 116.633 118 120 107 
12.0139 -12.4995 118.248 142 147 153 
13.0147 -12.6089 117.934 55 59 70 
16.0047 -12.6266 120.136 55 56 61 
-9.5766 -10.8528 115.715 128 143 150 
7.11958 -10.8923 116.276 189 194 200 
-7.54643 -10.6157 115.415 122 131 136 
-4.30398 -10.4098 117.499 116 133 141 
7.92366 -9.53343 118.048 112 119 127 
12.9093 -9.01801 117.097 110 122 134 
16.2003 -9.10947 119.013 100 113 121 
-9.51771 -7.49891 115.026 126 141 144 
-7.83592 -7.61318 114.81 141 150 155 
-4.27712 -7.34523 116.807 132 145 154 
12.8267 -6.30941 116.327 123 131 142 
0.395987 -0.557804 107.457 103 105 94 
3.42698 -0.463481 105.678 104 101 92 
-5.83158 5.30747 114.269 197 200 193 
-0.850046 5.09981 107.843 177 178 164 
10.3162 6.51276 126.591 150 153 146 
10.7672 5.99584 115.786 104 114 116 
-10.6126 18.7709 100.331 144 135 140 
-1.65789 19.0792 100.541 126 132 132 
18.4903 19.878 104.776 111 110 108 
-10.0125 19.5837 100.11 41 44 51 
7.99637 20.1687 101.793 49 57 59 
9.27026 20.5287 102.953 40 48 50 
16.7089 20.4034 103.089 33 41 44 
17.7619 20.3534 102.329 36 41 45 
-12.705 20.3675 98.6365 185 176 177 
7.96671 21.6637 101.452 55 67 67 
21.0087 23.2082 102.348 159 155 152 
22.3181 23.6431 104.334 163 163 163 
1.12602 -41.4422 126.255 253 254 255 
-1.86547 -39.0242 122.603 159 159 159 
5.01837 -39.4385 125.769 176 176 176 
-2.34162 -38.694 125.577 156 156 156 
2.34558 -36.6364 122.082 99 99 101 
-0.177383 -35.351 121.805 155 153 154 
-12.6335 -24.3619 116.191 255 255 255 
7.6849 -15.7284 113.556 116 117 112 
-9.30198 -14.3201 114.914 78 87 84 
-4.23867 -14.1269 117.415 80 82 79 
23.2241 -13.9128 118.807 207 207 207 
-2.18332 -13.0056 116.818 133 126 116 
8.01476 -13.0034 118.657 58 58 56 
6.23448 -12.4962 115.659 119 121 108 
10.8335 -12.658 117.945 49 54 58 
12.0336 -12.6106 117.747 152 156 159 
13.2286 -12.5623 117.54 57 60 65 
15.9758 -12.2116 116.738 58 61 66 
-12.8368 -10.6051 114.475 122 130 143 
-7.43832 -10.511 116.806 131 142 146 
7.95714 -9.45182 117.498 113 117 126 
11.0275 -9.419 120.222 107 111 120 
13.1136 -8.86414 116.493 108 120 132 
16.2608 -8.99948 118.931 111 124 130 
-12.7752 -7.81719 113.939 124 135 139 
-9.817 -7.72445 116.352 123 141 143 
-13.9411 -7.05212 113.832 219 220 212 
13.3598 -6.20032 118.655 123 132 141 
-1.7645 -4.62387 114.553 113 110 103 
0.583707 -0.692484 108.596 110 112 101 
5.30096 -0.393469 105.259 92 88 77 
11.0809 3.98504 116.298 97 107 109 
-1.5334 19.1989 100.118 148 153 157 
1.25294 19.5375 101.678 98 99 104 
-9.76255 19.7716 99.3395 63 63 71 
0.199299 20.2254 101.761 63 64 69 
8.30915 20.395 102.052 58 61 66 
17.7968 20.7222 103.899 43 48 51 
22.4112 24.2155 103.655 28 24 23 
-1.69823 -38.2324 120.939 164 172 174 
5.48123 -38.8478 124.234 158 158 158 
-0.201825 -36.1024 124.047 205 203 204 
1.85381 -30.1928 122.242 228 227 232 
1.84185 -26.9844 121.479 231 231 229 
6.22538 -17.4514 118.782 146 143 138 
-12.7259 -14.6149 116.337 78 85 91 
7.88975 -14.3979 114.405 95 95 85 
-4.00947 -13.6171 115.574 88 95 101 
-2.09126 -13.0719 115.322 140 133 123 
6.16656 -12.9211 117.612 136 138 125 
10.8198 -13.17 120.635 60 64 65 
12.0296 -12.516 117.633 142 147 153 
13.7411 -12.7612 119.78 52 56 67 
16.1582 -12.6596 119.325 52 53 57 
22.9914 -12.1383 113.923 84 85 90 
-9.71664 -10.3686 115.189 114 129 136 
-6.84605 -10.2956 115.03 128 139 143 
7.09456 -10.4137 116.836 197 201 200 
17.1012 -10.1266 119.026 201 205 214 
8.02616 -8.91344 116.304 110 114 123 
16.4289 -6.6746 121.44 131 145 156 
-1.58013 -4.44943 113.311 115 117 116 
7.43949 -0.297226 107.737 80 80 70 
11.3382 3.96928 115.596 101 111 113 
-14.9606 4.54089 115.013 57 71 82 
1.1129 19.4754 101.722 103 112 111 
18.6257 20.2032 105.335 119 118 116 
-0.57499 20.3126 101.907 62 63 68 
7.57523 21.5968 103.584 110 114 113 
-3.0812 -35.9521 125.235 254 254 255 
-12.9239 -25.0268 118.225 254 254 254 
-2.2791 -13.0883 115.855 137 133 124 
5.94757 -13.3111 119.254 132 132 120 
8.29447 -13.2251 118.936 63 62 58 
15.7761 -12.5806 117.261 61 61 61 
-4.50584 -10.0346 113.836 124 144 151 
15.6178 -8.45227 116.06 106 120 131 
8.18666 -7.26214 117.315 110 123 132 
6.99642 -0.307796 107.882 82 78 67 
-1.02995 4.43864 104.76 174 175 159 
7.46318 18.9491 99.7671 129 133 132 
2.23214 -25.6207 117.734 232 232 230 
-3.18579 -15.02 111.061 92 88 76 
16.9885 -14.4467 117.602 105 103 90 
16.2202 -12.3228 117.102 58 59 61 
17.5455 -9.90957 121.417 202 207 211 
14.0541 -8.86047 116.481 109 120 126 
-4.63246 -8.04168 114.193 129 145 158 
14.6927 -6.42635 110.821 130 146 159 
-0.519613 -4.34397 108.533 116 118 113 
7.11348 -0.349578 106.484 121 121 111 
11.4449 5.2124 118.368 92 105 111 
0.735587 19.2186 103.294 72 60 64 
7.71572 18.3257 97.9669 43 37 37 
-0.479709 19.6731 99.5882 57 58 63 
-11.8369 -38.5592 126.422 176 179 186 
-12.6492 -38.1066 126.309 106 109 114 
-10.7687 -37.8974 126.27 121 122 126 
-8.93767 -37.2978 127.346 114 113 119 
-10.4842 -36.2056 125.423 254 255 255 
-11.3915 -36.2051 126.199 136 139 144 
-9.38871 -36.6466 127.608 254 254 254 
-8.12025 -35.5209 124.451 139 148 157 
-7.2814 -35.479 124.296 140 147 153 
-13.3842 -35.0216 123.294 189 191 188 
-6.86389 -34.2628 124.293 115 114 112 
-5.83323 -34.1494 124.232 164 164 162 
-12.8327 -33.9273 123.905 221 222 217 
-13.4636 -33.7526 124.014 119 119 117 
-9.60659 -30.9788 122.24 184 185 180 
10.993 27.0384 97.0349 190 186 183 
11.035 26.8953 98.8563 31 17 14 
12.4911 26.8045 98.6104 12 13 7 
10.9801 25.8842 96.9153 185 180 176 
12.3641 25.9736 97.6255 179 178 173 
-2.43776 24.9204 97.4186 76 75 81 
-8.08161 -25.7007 120.913 144 143 138 
12.4632 24.7182 98.4034 165 162 153 
10.9057 24.4797 97.6886 181 167 164 
8.41241 24.8426 98.9918 71 70 68 
8.49119 24.2668 97.9962 150 146 143 
-2.45842 24.1592 98.2579 73 70 79 
-9.20471 24.0014 96.9173 63 56 64 
-0.490919 24.003 98.0661 66 61 67 
3.9956 11.9225 48.9199 47 49 48 
6.38366 23.8655 98.2241 56 62 62 
-9.29199 23.5727 97.7949 58 55 62 
-11.4252 23.5484 97.9073 53 54 59 
25.3679 -23.2672 121.862 143 143 143 
25.7047 -22.9239 123.49 221 221 221 
-12.1288 23.1054 97.0265 74 84 85 
25.3004 -21.6203 120.567 91 91 91 
-0.490409 23.1767 98.0014 57 56 64 
6.37714 22.9567 98.1482 39 44 47 
0.325743 22.9819 97.9088 68 69 73 
-11.908 23.0607 97.8847 156 156 156 
7.98556 23.2463 99.8334 30 36 36 
5.5645 22.8258 98.2355 58 62 65 
3.31351 23.1388 99.4507 57 61 62 
2.46373 22.952 98.5991 61 62 64 
-2.94699 22.6864 98.188 141 121 130 
8.71864 22.4863 98.7149 116 108 105 
-7.20044 10.402 100.47 92 116 116 
-12.0614 -11.8662 112.992 217 210 200 
-3.60032 -11.7508 113.451 120 118 106 
15.8443 -11.557 117.431 217 220 213 
-3.45449 -11.0511 114.786 94 88 72 
-17.4869 9.97363 111.613 98 103 107 
-19.254 -9.57911 115.464 138 139 131 
-19.2566 -9.20081 115.482 159 165 163 
-18.4689 -8.99649 113.015 79 85 83 
12.5454 -8.52963 115.866 74 74 74 
1.72509 -8.31511 115.417 169 169 171 
2.13243 -8.41108 116.636 83 83 85 
15.9252 -7.27446 118.023 120 120 108 
-17.2707 6.45664 111.411 96 98 97 
-18.6891 -5.72387 114.382 117 126 131 
-14.4469 -5.73785 114.011 115 123 126 
-2.6911 -5.42329 115.116 104 109 113 
15.4413 5.71769 114.38 163 160 153 
22.0655 -2.90236 113.176 217 218 213 
23.3392 -2.96898 113.861 209 211 206 
-18.9181 -2.43217 114.611 135 143 145 
-14.4795 -2.27346 114.264 147 153 153 
1.33507 -2.14347 114.829 132 136 139 
1.03623 -0.831964 51.9891 132 141 140 
-6.05674 3.54189 103.803 71 72 54 
-5.60155 3.39141 101.789 70 71 53 
-6.04191 -34.9565 124.222 212 212 210 
-3.62309 -1.42983 114.328 221 221 209 
-8.6143 31.7792 95.6626 146 136 137 
-3.88789 -7.01119 116.44 199 199 191 
-7.30418 -28.8724 124.673 229 229 227 
11.7295 26.4292 97.7802 76 74 75 
-13.054 -26.5193 120.273 168 169 164 
-4.74943 -26.9189 123.177 154 153 149 
-9.21667 24.9879 96.9973 89 91 88 
-14.6881 -25.9775 120.529 160 161 156 
-4.71662 -25.4622 117.552 228 227 222 
-9.99614 -25.3438 119.778 178 178 170 
-4.85964 -9.10457 116.419 122 112 100 
-8.69561 -24.9382 121.062 237 238 233 
-12.2525 -9.19553 114.796 125 118 108 
-9.6094 -24.4847 119.871 230 230 222 
-0.557584 9.84001 111.536 155 161 151 
6.00981 5.36831 60.1024 135 142 135 
13.1266 14.5404 80.3714 27 28 30 
-4.76166 -13.1912 118.717 144 141 134 
-8.33765 -16.9895 118.909 235 232 227 
-8.43422 -16.3076 117.57 167 162 156 
-2.94412 9.41389 103.894 195 196 182 
-13.4383 -7.22707 115.101 192 192 180 
-10.0868 9.29111 102.573 193 193 181 
-4.47075 -8.34332 116.421 113 109 100 
-14.1868 -10.1387 114.954 93 90 75 
-9.71953 -24.3795 121.26 172 168 157 
-5.50219 9.35975 103.156 193 191 179 
-7.40756 9.41416 103.35 190 189 171 
7.65886 -12.7558 117.999 155 153 141 
-12.4886 -30.561 122.613 233 233 233 
-12.2567 -37.9267 125.583 82 85 92 
-10.9817 -37.8642 125.366 104 107 112 
-7.28174 -37.9691 126.466 128 127 135 
-13.0276 -36.5078 125.784 254 255 255 
-7.02727 -36.7407 126.494 125 128 135 
-12.2612 -36.2311 125.672 131 134 139 
-10.8584 -35.5877 123.881 153 157 160 
-8.08042 -35.2902 123.249 139 148 157 
-7.4548 -35.6874 125.009 143 150 158 
-5.8595 -34.6315 123.022 216 216 214 
-13.357 -34.5732 124.192 128 128 126 
-6.85481 -33.9701 123.252 115 114 112 
-5.94145 -34.17 124.814 172 172 170 
-12.6788 -33.3587 122.448 223 224 219 
-9.23211 -30.781 122.164 176 177 171 
-12.4411 -30.0336 122.589 123 123 123 
-4.49741 -27.3915 119.874 120 120 120 
-15.0667 -25.7282 120.035 152 153 147 
-10.3437 -25.7231 120.979 157 157 149 
-9.62713 -25.6134 120.997 234 233 228 
-8.14189 -25.658 120.63 144 143 138 
-3.53313 -25.2747 119.844 136 133 128 
-9.48289 -24.4231 119.298 230 230 222 
-9.61297 -24.2964 120.953 172 168 157 
-8.87863 -24.2766 120.838 165 162 153 
25.3427 -23.1841 121.54 143 143 143 
-9.43077 -22.0635 118.59 232 232 222 
25.6703 -22.7685 123.102 212 212 212 
25.3855 -21.7941 121.731 145 145 145 
20.9438 -19.5103 121.395 254 254 254 
20.4789 -18.6416 120.068 124 129 135 
7.562 -12.7687 117.115 189 185 174 
-12.5833 -12.1201 112.942 126 122 111 
8.14293 -11.6615 115.381 142 140 128 
-13.2812 -11.1981 113.104 90 86 75 
-11.9218 -10.8688 113.042 133 125 112 
-3.94333 -11.1942 117.959 179 171 158 
-3.37902 -10.8839 114.801 103 97 81 
-19.4157 -9.62272 115.97 138 139 131 
-19.4128 -9.20228 115.965 159 165 163 
-12.3793 -9.19751 115.28 125 118 108 
-4.8139 -9.14395 116.191 130 120 108 
-14.8204 -9.0007 116.328 102 108 106 
12.5928 -8.98564 120.429 168 167 163 
-14.2158 -8.3132 113.362 164 172 174 
12.7037 -8.60092 116.973 74 74 74 
15.5941 -8.439 119.431 88 90 85 
-14.1333 -7.97902 116.39 138 153 148 
11.9282 -8.03906 116.271 131 128 123 
-13.4758 -7.29948 114.797 192 192 180 
-3.89739 -7.16225 116.7 194 194 186 
-2.69223 -5.25462 115.141 116 121 125 
1.00163 -5.33209 116.086 118 117 122 
23.3568 -2.99577 114.135 209 211 206 
-18.5244 -2.38424 113.374 134 142 144 
-14.4953 -2.39287 113.784 143 149 149 
1.06834 -0.847172 51.8905 132 141 140 
-5.96243 2.91259 103.959 124 126 112 
-6.59236 3.33198 104.058 172 175 156 
-5.918 3.50465 103.188 75 76 58 
-17.3435 6.48842 111.642 96 98 97 
-15.9892 9.8771 111.543 170 167 152 
7.64934 5.64372 64.463 90 94 93 
-11.0621 9.29195 103.055 157 159 146 
-9.92686 9.18667 101.98 199 201 188 
-7.4115 10.4471 101.064 96 120 120 
12.9238 8.19287 79.4498 59 78 76 
14.5519 12.3562 79.6636 84 118 119 
8.58889 22.6148 99.124 137 132 128 
-2.91325 22.907 99.2929 141 121 130 
-8.90975 22.6826 97.5411 140 123 129 
2.40916 22.7526 97.6734 61 62 64 
3.42033 22.9726 98.676 64 68 69 
6.3578 23.0494 98.3382 39 44 47 
8.00548 23.245 99.2652 38 42 43 
-0.728535 23.4339 99.1436 56 55 63 
-12.2537 23.2628 97.7501 74 84 85 
-9.50168 23.2886 97.6103 56 54 59 
6.36238 23.8473 98.4132 56 62 62 
8.0116 24.0513 99.345 50 54 53 
-0.522379 24.0515 98.0665 66 61 67 
-9.50767 24.2736 97.6694 64 62 67 
8.44929 24.1823 97.5223 150 146 143 
12.3162 24.7409 98.8062 177 172 166 
8.21593 25.0522 99.4193 71 73 72 
-12.3696 -38.001 125.664 106 109 114 
-7.31064 -38.1013 126.895 128 127 135 
-12.9871 -36.5738 125.838 254 255 255 
-6.96436 -36.6999 126.188 125 128 135 
-10.1858 -36.0666 124.89 251 253 252 
-8.40364 -36.0675 125.068 128 136 149 
-5.98062 -35.0804 124.669 212 212 210 
-6.39626 -29.653 121.147 141 141 139 
-12.9671 -28.6665 120.16 118 118 118 
-16.5073 -26.2382 120.77 187 187 187 
-15.0351 -25.9217 120.593 152 153 147 
-10.3461 -25.5181 119.938 161 161 153 
-8.16977 -25.7733 121.699 144 143 138 
-3.40232 -25.0217 118.785 153 150 145 
-9.47433 -24.6575 119.855 233 232 227 
25.3157 -23.1134 121.179 143 143 143 
26.8614 -21.4523 120.298 166 166 166 
20.5187 -19.298 118.624 250 250 250 
10.5552 -23.4696 146.217 158 159 161 
30.9005 -18.0848 120.255 115 119 122 
-4.44868 -12.9725 116.319 145 142 135 
8.18539 -11.3583 113.388 128 126 114 
-3.27672 -10.8739 114.469 100 94 78 
29.3232 -10.5441 118.512 202 207 213 
2.27658 -8.58639 117.534 69 69 69 
11.954 -7.96851 115.612 106 103 96 
6.64635 -6.65379 114.91 209 209 209 
-14.8163 -5.64186 114.492 107 115 126 
-2.45366 -5.21638 114.793 115 120 126 
1.14146 -5.30835 116.051 123 122 127 
2.53741 -5.3265 116.185 114 119 125 
2.65683 -2.29576 52.5432 114 117 124 
27.1012 -3.07481 116.297 222 223 218 
-14.337 -2.34896 112.901 143 149 149 
-13.5199 -1.55255 112.873 228 225 216 
-3.57399 -1.55059 115.329 216 218 207 
-6.40497 3.20045 103.057 192 195 178 
-7.25557 3.49927 104.623 87 79 66 
-17.6486 5.4956 113.308 125 126 121 
21.5401 8.75096 110.656 209 208 203 
-6.25391 8.73793 100.635 239 234 215 
5.65009 9.09886 106.472 128 136 139 
0.832573 9.7549 111.471 125 128 133 
8.66966 22.8852 100.052 107 106 102 
-2.81462 22.8292 98.6192 141 124 132 
-0.459998 23.3815 101.15 131 124 131 
0.0246971 22.7307 98.3571 149 144 150 
0.496452 22.9522 98.3295 70 71 75 
-2.34188 23.5308 98.6322 56 53 60 
-11.2563 23.6024 97.9297 43 44 49 
-0.684981 24.1907 98.5399 75 68 75 
-11.1132 23.9946 96.6837 67 67 75 
-9.60785 24.2712 97.8895 64 62 67 
8.44939 24.1614 97.5176 150 146 143 
-2.54714 24.4058 97.4201 151 148 155 
10.9873 24.3863 97.1769 188 178 176 
-8.94825 31.994 95.8243 160 149 153 
-8.11114 -37.0483 123.285 94 93 107 
-11.1838 -37.7206 126.091 82 85 94 
-7.17621 -37.412 125.609 102 102 112 
-13.4459 -37.0209 126.746 250 252 251 
-11.9625 -36.9537 126.503 127 130 139 
-10.4848 -36.5335 126.271 254 255 255 
-13.508 -34.6586 124.123 170 170 168 
-6.6782 -33.9025 123.202 124 123 121 
-5.96192 -33.8675 123.067 164 164 162 
-6.3208 -32.8613 123.2 230 229 225 
-13.3567 -29.5322 122.66 158 158 158 
-14.7214 -25.6958 119.436 154 155 149 
-9.77343 -25.459 122.008 224 223 218 
25.7927 -23.4653 124.036 152 152 152 
-9.78204 -22.7311 122.179 232 232 222 
25.3025 -21.6353 121.669 121 121 121 
20.5987 -19.7463 120.791 255 255 253 
20.291 -18.7594 121.02 145 150 156 
15.364 -12.8724 120.595 213 215 214 
-3.50075 -11.7321 112.946 120 118 106 
8.04386 -11.5814 115.274 127 125 113 
-3.18533 -10.9491 113.068 94 92 79 
7.36526 -10.901 115.037 119 120 104 
-3.29666 -10.8818 117.342 109 103 89 
6.66166 -10.4733 114.358 89 87 72 
12.7647 -10.6607 119.016 195 194 192 
14.4004 -10.373 121.296 46 50 51 
2.43103 -8.71304 116.673 59 59 57 
12.8731 -8.65154 116.936 88 88 90 
5.53863 -8.53936 118.424 57 63 63 
-14.7944 -5.65646 114.779 133 140 148 
-2.58302 -5.30888 115.565 104 109 115 
0.742751 -5.31011 115.04 117 116 122 
-2.58623 -2.36175 115.813 124 131 137 
0.742597 -2.21934 115.407 119 124 128 
-7.35597 3.55529 103.2 88 80 67 
15.8096 8.00867 113.748 90 90 88 
14.3721 12.3712 80.153 82 120 121 
8.38412 22.6739 99.5233 139 134 130 
-8.96151 22.9863 98.0281 124 112 114 
0.632635 22.816 97.2615 73 77 80 
6.57587 23.2362 98.1993 59 54 61 
7.82361 23.5726 99.6882 54 54 56 
-9.81646 23.5785 98.1096 58 56 61 
-2.17797 23.3478 97.5748 70 69 75 
10.9742 27.0626 99.6083 58 38 37 
11.1738 27.0041 96.3869 185 184 180 
8.79881 31.5718 97.7858 135 130 134 
-9.15574 32.2268 97.0715 154 154 156 
-6.09541 -33.4034 121.296 162 162 160 
-7.25076 -34.8509 127.217 165 164 160 
-10.1282 -32.8823 124.757 141 140 135 
-11.645 -30.7927 122.409 173 173 173 
-6.52186 -29.7822 121.597 141 141 139 
-12.6404 -28.903 119.825 123 123 123 
25.1747 -22.9266 120.394 163 163 163 
25.8576 -21.8916 123.639 145 147 144 
20.9176 -19.9548 122.232 255 255 253 
25.7387 -17.3298 121.04 226 228 223 
-3.27292 -11.6641 111.717 140 137 128 
-12.9982 -8.42573 115.797 133 126 116 
-2.61797 -8.60456 117.062 64 62 63 
1.42064 -8.58357 116.39 105 103 104 
2.68528 -8.79021 118.919 68 68 68 
5.67201 -8.99393 121.239 52 58 58 
-14.9202 -5.71311 115.231 107 115 126 
-2.61298 -5.32656 116.842 104 109 115 
0.621511 -5.0346 116.853 113 118 122 
2.63353 -5.03532 116.511 111 124 132 
-2.62445 -2.63722 117.571 122 129 135 
-14.0925 -1.64657 114.967 220 221 215 
-11.705 -0.114565 111.181 103 103 95 
4.48275 7.96532 112.338 104 109 113 
-6.76008 10.5386 100.563 169 191 189 
14.3597 12.3938 80.5998 82 122 124 
-8.96364 23.0454 98.0374 124 112 114 
0.84439 22.5763 96.0128 73 77 80 
6.63296 23.4058 98.2084 61 56 62 
-9.13619 -22.2253 119.669 233 233 225 
20.7694 -19.8539 120.413 253 253 253 
19.8396 -18.9368 120.824 139 142 147 
15.6152 -12.8266 119.125 216 218 215 
21.2981 -11.2782 117.748 212 216 215 
12.3946 -10.6342 116.703 218 217 213 
14.4431 -8.93785 113.778 89 91 88 
-13.2844 -8.54914 116.894 143 136 126 
-4.55365 -8.61275 116.843 131 127 118 
-2.60821 -8.6047 116.547 59 57 58 
0.291471 -8.5901 116.073 63 61 62 
3.16656 -8.57249 115.563 54 54 52 
-3.58318 -6.23604 116.887 204 205 200 
0.295925 -4.81338 116.408 112 117 121 
-12.4913 -0.0447916 114.173 120 117 108 
-10.2595 3.51295 105.804 80 73 63 
-1.43488 8.78046 102.511 180 171 162 
-6.91168 10.4886 101.769 165 181 180 
8.43872 22.7475 98.6712 114 116 113 
-1.76868 23.4363 97.5844 68 66 71 
-2.6492 25.0806 100.082 151 148 155 
20.4923 -20.0122 121.083 255 255 253 
6.37454 -18.5761 116.463 250 250 250 
-3.43117 -12.0926 115.03 140 137 128 
-4.59049 -8.73911 115.469 136 132 123 
0.0079455 -8.71608 114.741 64 62 63 
12.2663 -7.12554 117.303 155 153 140 
19.3275 4.08656 125.194 91 87 75 
-6.44834 10.2888 99.8233 220 226 222 
-2.93197 22.8724 98.5469 141 121 130 
7.00077 23.6566 100.371 46 44 49 
-1.46047 23.813 98.4921 73 68 74 
-2.37771 24.1609 95.9535 151 150 156 
-9.21883 -25.3395 120.289 231 232 226 
15.5564 -12.7352 117.521 222 224 223 
-2.78721 -9.4934 121.687 62 61 57 
-3.25176 -6.09802 112.662 200 202 199 
3.90104 -5.46374 126.246 109 124 131 
-34.1787 -64.5972 181.978 125 126 131 
-33.6119 -64.6519 182.179 177 178 183 
-35.8875 -65.254 184.561 136 137 141 
-27.9613 -64.5038 183.097 155 156 160 
-32.6435 -63.7839 181.959 125 125 133 
-29.6927 -64.0491 182.528 115 118 127 
-34.4101 -61.8604 178.452 80 82 97 
-27.0612 -63.5829 183.165 138 141 150 
-36.0292 -63.6129 183.826 128 128 138 
-32.6063 -62.4891 181.74 123 125 138 
-29.253 -61.6769 179.658 80 82 97 
-27.0284 -62.2775 182.93 182 183 188 
-35.5102 -62.3276 184.168 138 143 149 
-33.2106 -62.5369 184.982 251 255 255 
-34.2508 27.6877 143.77 74 71 80 
-33.4202 -61.1253 181.234 125 129 140 
-29.3265 -61.1494 182.106 145 149 160 
-28.1683 -61.2274 182.437 130 134 143 
-37.0989 -59.1503 179.981 137 137 137 
-11.557 27.0159 141.739 73 72 78 
-6.81495 26.3974 141.457 133 133 133 
-38.2153 -59.9074 185.516 170 170 170 
-26.491 -57.4112 179.243 217 224 216 
29.8189 16.9541 162.351 42 41 39 
-31.4958 -53.6443 177.229 167 167 165 
-23.8182 29.6987 142.991 163 151 161 
-7.27177 29.6713 141.005 68 72 75 
20.6112 -40.651 173.239 134 135 140 
13.488 -35.0031 170.811 253 254 255 
27.751 -34.4939 172.794 254 255 255 
-8.39014 -33.1843 169.949 96 95 100 
21.6829 -33.2105 174.944 211 217 213 
-45.3219 7.26674 164.988 122 122 130 
-47.8639 -21.6618 172.205 163 163 163 
0.364848 -21.4321 169.631 221 221 211 
0.944621 -21.7627 172.262 55 56 50 
-47.0205 -21.5159 172.313 92 97 101 
36.0082 -21.7099 173.772 215 220 216 
36.1772 -20.8707 169.134 108 113 117 
-1.35502 31.8124 136.25 45 33 37 
35.6999 -20.8508 173.676 107 112 105 
-15.7655 -19.9423 169.928 165 167 164 
-14.9211 -19.9322 169.973 64 65 67 
0.658308 -19.8115 169.029 217 222 218 
43.7169 -19.946 171.073 214 207 199 
36.7759 -19.5381 171.923 116 119 112 
41.4608 -18.3663 166.572 115 114 110 
5.49747 -18.3401 170.397 178 177 173 
36.0016 -18.1143 169.651 41 45 31 
41.8853 -18.0996 171.722 61 56 52 
-47.3329 -16.5257 171.338 114 128 131 
-40.9401 -16.3708 170.842 115 128 136 
40.1379 -2.10295 168.078 221 226 220 
-14.8764 -15.216 169.262 102 109 115 
27.187 -12.1425 167.597 130 138 140 
-47.3232 -11.4401 170.289 135 149 152 
-40.023 -10.9767 167.077 137 144 150 
-38.1482 -9.57003 164.929 220 219 214 
-23.0983 27.172 141.521 64 52 62 
-36.2631 -61.9532 183.45 251 255 255 
-26.3225 -60.3955 182.387 214 214 214 
-34.488 -58.0862 177.411 118 118 116 
-14.6377 27.0236 141.831 71 66 73 
-16.057 27.0206 141.839 73 68 75 
-26.6544 -57.3809 176.38 116 121 117 
-23.8852 26.8225 143.422 149 133 144 
-24.3562 26.8131 143.38 134 114 125 
-37.4465 28.0385 145.014 70 59 73 
-20.7873 27.6765 143.491 64 58 68 
11.5255 -6.97636 152.695 212 215 206 
35.0529 38.7889 151.283 95 105 96 
-23.6021 28.7833 143.139 82 72 81 
-32.6706 -51.0832 173.947 164 166 163 
-20.5016 28.5759 141.49 82 74 87 
-26.6488 -52.3384 178.265 226 228 225 
-10.4886 28.8441 143.268 74 67 75 
-34.1979 29.0749 143.546 86 80 94 
-40.1502 -46.3618 176.306 135 134 132 
-32.6608 -45.8202 175.513 154 155 150 
-23.2724 -45.9431 177.453 146 145 143 
-32.582 -45.0474 178.269 234 235 229 
34.9552 44.4612 148.79 89 84 88 
40.8126 44.5925 150.264 18 14 13 
14.1858 41.2656 139.64 28 21 5 
14.1994 40.6169 139.755 99 95 84 
-15.9381 9.48774 181.077 149 151 148 
14.7525 36.8157 138.306 106 101 69 
-33.6527 40.5713 142.134 158 147 155 
-29.8638 -32.3165 171.082 231 231 231 
16.2427 38.883 139.262 38 35 18 
-13.8258 5.01371 115.653 146 142 131 
43.0115 -21.0397 175.149 125 129 130 
15.3774 38.4612 137.749 109 106 91 
-29.0249 6.41744 147.845 255 249 243 
-39.6813 -20.1425 169.132 167 176 175 
17.8833 37.8506 137.587 119 119 83 
-39.854 -20.951 168.787 100 111 107 
-34.1665 30.353 143.398 98 99 104 
-23.8102 30.2755 142.929 73 63 72 
-45.969 2.07168 168.397 155 160 163 
27.4155 -21.7817 172.611 174 182 193 
21.6878 -21.4734 168.401 180 187 205 
13.5854 37.6425 140.549 87 86 58 
15.3841 37.5703 139.868 46 39 11 
-0.186223 -23.0885 172.445 156 156 148 
-24.3279 -24.6591 162.737 161 158 149 
14.5213 37.2676 138.311 85 80 58 
-23.0411 -23.3529 165.151 89 87 72 
0.1005 -27.9068 188.288 62 66 69 
-36.5188 -23.4166 166.306 116 113 98 
-39.1288 -22.4811 166.834 90 86 75 
-24.0848 39.4734 141.613 103 93 102 
-37.8109 -19.049 163.631 142 147 141 
12.5478 39.1094 139.481 36 14 16 
-6.74897 39.3074 139.446 156 128 140 
-23.8415 -17.8646 168.93 194 197 190 
29.0821 28.5271 152.939 61 56 52 
15.3687 39.4288 135.681 25 27 5 
42.5074 -16.5881 170.775 203 202 197 
-30.1729 -43.0625 172.929 155 156 151 
-31.7671 -43.7151 175.392 153 154 148 
28.3816 39.7942 152.031 31 33 30 
28.4086 37.8656 153.516 86 89 80 
28.7532 38.4665 152.642 39 41 36 
-38.3877 -22.3129 169.706 111 109 88 
-26.0053 -56.4872 182.091 181 181 181 
21.1249 26.9348 148.929 101 49 12 
-34.5612 -63.3921 179.393 81 84 91 
-30.0586 -64.7502 184.671 115 118 127 
-27.0051 -63.0071 179.274 112 115 120 
-27.4939 -64.164 184.889 96 98 110 
-36.3048 -62.1972 182.627 251 255 253 
-26.9959 -61.679 181.355 111 111 119 
-35.2744 -61.9063 182.94 138 143 149 
-32.8739 -62.1218 183.781 251 255 255 
-33.1313 -60.4561 179.361 125 129 140 
-30.0781 -60.6967 180.335 254 255 255 
-29.9828 -61.9883 184.18 156 160 171 
-37.615 -60.8957 181.915 207 207 207 
-28.2863 -61.3146 182.869 130 134 143 
-26.1655 -59.828 180.781 214 214 214 
-27.5215 -58.5952 180.216 114 116 113 
-36.8687 -58.6401 181.79 224 224 224 
-26.8015 -57.4835 180.192 213 220 212 
-25.7239 -56.0036 180.174 181 181 181 
-32.017 -54.0869 175.159 108 107 105 
-34.6955 -53.4367 178.029 114 115 110 
-37.8808 -51.6984 179.78 123 125 124 
-38.7289 -49.0779 175.48 136 138 137 
-26.178 -47.4269 169.299 150 152 149 
-40.7022 -47.365 174.827 139 139 139 
-27.2009 -50.2604 187.656 164 164 164 
-40.6898 -46.9462 177.918 147 146 144 
-42.9501 -45.2589 173.942 128 129 131 
-32.4152 -45.2275 173.485 154 155 150 
-30.0126 -46.2666 177.705 159 158 153 
-31.4183 -44.9126 173.709 234 236 231 
-32.2443 -44.759 176.459 234 235 229 
-30.903 -44.822 176.838 233 235 230 
-31.6108 -43.5758 174.848 153 154 148 
-30.3232 -43.1988 173.461 155 156 151 
25.0445 -37.0284 174.748 129 130 134 
13.8435 -35.2285 174.645 117 118 122 
-8.8174 -34.6426 173.621 244 243 248 
-8.8104 -33.9221 173.474 121 120 125 
21.4341 -32.9833 173.902 211 217 213 
20.0676 -32.018 174.081 218 221 214 
-36.5105 -25.1308 165.338 209 205 196 
-36.2087 -23.3087 165.381 116 113 98 
-24.4321 -23.0843 164.23 129 125 113 
-22.8266 -23.0879 164.475 92 90 75 
15.1437 -23.2924 173.606 145 146 150 
36.0895 -22.9861 170.792 57 58 62 
-38.745 -22.4875 170.773 111 109 88 
22.949 -22.0859 167.234 226 227 231 
21.6689 -21.3654 167.799 180 187 205 
-40.2419 -21.1259 169.919 100 111 107 
-22.6426 -20.3483 170.368 64 68 67 
-13.6524 -19.6633 164.685 58 58 58 
35.0762 -20.5122 170.923 107 112 105 
5.59627 -19.8328 169.023 218 224 224 
-39.2357 -19.4089 169.959 149 154 147 
36.9331 -19.7504 173.224 116 119 112 
5.26308 -18.9537 168.62 100 104 103 
35.6036 -19.072 170.179 174 180 170 
41.8824 -18.6923 169.394 123 122 118 
27.2367 -18.4968 171.083 143 150 166 
36.6134 -18.44 171.792 63 65 54 
41.4524 -18.0287 170.463 63 58 54 
26.965 -16.4231 167.282 117 120 129 
-22.5197 -15.1621 169.407 125 135 137 
-9.95136 -14.7731 169.341 115 120 126 
-8.77259 -14.474 166.214 126 131 134 
27.294 -12.3031 169.312 128 136 139 
-40.5089 -11.1376 168.145 133 142 151 
-37.2051 -8.24007 168.436 129 132 125 
40.1622 -2.15445 169.37 221 226 220 
-13.8969 8.47506 171.499 119 121 118 
39.5744 12.64 161.503 189 190 182 
25.8516 16.2574 162.593 170 182 178 
25.3677 15.3941 153.753 205 215 214 
28.5049 15.8909 159.237 177 177 177 
29.4217 16.3906 157.35 66 65 61 
19.7678 24.1815 148.727 130 79 48 
-33.585 27.0413 144.002 141 135 137 
-23.5507 26.343 140.849 149 133 144 
29.2211 28.9895 154.738 64 62 49 
-11.7355 26.6983 141.049 72 71 77 
8.6521 26.849 142.225 34 24 22 
-19.3677 27.3716 143.242 65 60 67 
-16.5096 27.3922 143.304 78 73 80 
-14.5613 26.9757 141.089 71 66 73 
-34.3804 27.7013 143.716 74 66 79 
-20.4665 27.2082 140.94 64 58 68 
-10.4722 27.5125 143.085 54 51 58 
-10.4651 28.7499 142.923 70 63 71 
-7.88154 28.7178 142.729 71 66 73 
-34.3398 29.0954 143.534 80 74 88 
-23.8572 29.5087 142.649 155 143 153 
6.37362 29.7965 142.347 122 127 133 
-7.46895 29.6131 140.291 71 75 78 
-34.2994 30.4858 143.353 105 105 107 
14.7458 35.8403 140.849 55 62 18 
28.374 39.9759 151.994 31 33 30 
13.4108 37.2041 138.743 87 86 58 
15.278 37.0198 138.061 46 39 11 
25.4265 40.1431 148.989 22 24 21 
29.372 41.5998 154.049 54 55 49 
14.1364 39.0405 140.471 52 44 41 
15.2461 38.4293 137.806 58 51 41 
12.497 39.4664 141.004 82 56 57 
-7.52588 39.7529 140.946 163 146 154 
32.251 43.1656 151.676 61 63 60 
14.0874 41.3872 140.05 34 25 16 
35.1336 44.6234 149.76 92 87 93 
-35.3227 -64.0769 182.31 81 84 91 
-33.1524 -64.3142 182.541 104 107 114 
-29.708 -64.1631 183.026 115 118 127 
-27.7244 -64.279 184.153 112 115 120 
-36.0586 -61.6622 181.61 251 255 255 
-35.2722 -63.1829 186.832 121 125 137 
-28.7981 -61.4085 182.777 142 146 158 
-35.8175 -57.9356 176.276 139 139 139 
-27.146 -57.778 177.849 145 147 142 
-26.2936 -56.462 177.822 221 228 220 
-31.2559 -55.6523 176.849 101 99 100 
-24.2258 -48.7147 175.02 151 151 151 
-39.8773 -46.4034 175.525 161 161 161 
-44.0036 -45.8969 176.86 168 169 171 
-23.1591 -45.7844 176.514 146 145 143 
-31.7346 -44.485 174.735 230 232 227 
13.7508 -35.5008 171.977 243 245 244 
-8.66789 -34.1123 174.799 96 95 100 
21.2392 -31.536 172.392 225 230 223 
-36.5601 -25.2166 166.119 210 206 197 
-38.3858 -24.3487 165.406 92 89 74 
-25.0596 -23.4707 166.642 186 182 170 
-22.7732 -23.129 164.539 98 96 81 
1.40188 -22.9441 175.408 228 227 222 
15.0173 -22.4668 172.29 157 166 181 
43.0197 -23.6504 180.396 241 244 249 
35.471 -21.9189 171.205 229 234 230 
-42.986 -22.3322 177.848 69 80 76 
-39.7581 -20.9035 167.913 100 111 107 
-21.1529 -19.4739 164.147 58 62 65 
-14.704 -20.1006 171.805 60 61 65 
37.4357 -19.7451 178.707 174 180 170 
36.8255 -18.551 173.707 41 45 31 
41.3986 -17.8612 170.18 61 56 52 
6.2249 -17.2308 169.512 211 214 207 
22.3115 -16.3838 168.005 129 138 147 
27.4419 -16.4842 169.857 150 153 160 
-41.3058 -16.1582 170.883 120 134 143 
13.8533 -13.9323 168.243 228 233 229 
-40.9336 -11.2227 169.347 133 142 151 
-36.6858 -7.87993 166.662 100 102 97 
-29.5348 -1.76324 150.581 83 77 65 
-35.7636 -0.191132 154.11 210 203 193 
-17.866 7.49572 166.404 122 126 125 
-29.2592 8.71808 145.547 222 243 246 
33.2407 11.1246 160.556 94 95 100 
26.2584 15.7517 157.982 195 203 205 
29.011 16.6449 158.547 42 41 39 
11.2669 18.4184 133.31 10 15 11 
-33.0538 26.6809 142.22 141 135 137 
-24.5961 27.4563 146.761 132 114 126 
-15.8207 27.0381 143.823 139 132 140 
-10.7743 26.5302 141.028 141 142 147 
-6.69306 26.3175 140.698 133 133 133 
29.0803 28.7292 153.012 48 49 35 
-19.2588 27.348 143.714 76 71 78 
-14.7797 27.3718 143.765 71 66 73 
-11.7903 26.861 141.026 74 73 79 
8.64894 27.1556 143.107 33 23 21 
-10.2786 27.6841 143.543 61 58 65 
-7.71148 27.1464 140.707 46 45 51 
-34.6429 28.1529 144.569 66 58 73 
-23.3453 27.9546 143.381 72 62 71 
-23.3312 28.6183 143.286 83 76 84 
-10.0793 28.1446 140.733 77 70 78 
-7.70479 28.1148 140.552 71 66 73 
-34.6132 29.1626 144.437 85 76 93 
-20.9401 28.9873 143.394 78 70 83 
-23.988 29.5992 143.089 151 138 148 
-7.35957 29.0754 140.366 148 149 153 
-34.4556 30.6599 143.767 105 105 107 
13.7942 35.8961 139.779 91 96 55 
35.0134 38.5711 150.206 93 103 92 
13.7623 37.46 139.494 98 97 67 
15.2018 36.9211 137.375 46 39 11 
16.3013 38.2776 138.334 32 25 17 
-6.90178 38.6742 137.516 158 138 149 
19.7842 39.0868 139.487 68 72 58 
32.2907 43.1813 151.012 59 61 58 
14.3484 40.1912 138.759 90 86 74 
28.3729 45.1996 149.5 95 87 84 
-33.171 -63.2689 181.057 84 88 99 
-31.3694 -67.5261 192.608 115 118 127 
-27.5708 -63.1898 182.053 85 88 97 
-34.0935 -61.5109 180.43 116 120 132 
-32.6939 -62.6396 184.492 251 255 255 
-28.5255 -61.4421 181.47 117 123 137 
-37.9735 -60.7679 184.188 190 190 190 
-26.3287 -58.8435 180.926 168 168 168 
-32.2157 -55.9544 181.761 239 237 238 
-26.2069 -50.3567 169.942 119 121 118 
-31.1336 -44.0765 172.698 234 236 231 
-15.8028 -40.0343 168.812 134 130 131 
-31.7588 -41.2003 176.327 233 233 231 
13.2892 -36.1916 174.406 255 255 253 
-8.72691 -34.8424 172.649 255 255 255 
28.4176 -36.562 181.174 245 245 245 
12.8292 -34.8244 174.958 121 126 132 
-8.71697 -33.8108 172.438 121 120 125 
-1.63302 -41.7162 217.433 98 101 106 
-23.6218 -24.9073 165.501 123 123 113 
34.4641 -24.5093 172.233 130 134 120 
-22.1781 -22.9571 165.363 90 87 72 
28.1913 -23.1572 170.392 229 231 226 
1.20308 -22.996 174.206 211 216 210 
35.2356 -22.3988 171.168 159 161 156 
0.725069 -21.6762 173.561 217 218 212 
36.4851 -21.2671 170.112 117 122 126 
-22.2123 -20.095 169.229 61 65 66 
-11.2804 -18.1921 153.176 58 58 60 
-24.5838 -19.6018 168.802 110 108 95 
-9.55628 -19.6598 169.564 71 71 73 
15.352 -17.9002 174.997 128 133 137 
-17.1643 -10.4352 167.571 118 123 127 
-37.0362 -4.71672 159.517 122 124 119 
-30.5443 -1.53598 152.36 83 77 65 
-37.0552 6.87715 153.83 175 173 161 
29.076 16.6498 159.34 48 47 45 
21.4304 23.8274 144.972 92 55 26 
-24.1182 27.0519 145.148 149 133 144 
-7.22751 26.4935 141.845 124 129 132 
-33.0449 26.777 142.187 140 134 138 
-35.2389 28.4645 146.178 76 63 80 
-23.6795 28.2701 145.006 72 62 71 
-21.6129 28.3045 145.152 73 62 76 
-10.0921 27.7011 141.88 74 69 76 
-8.04013 27.6773 141.727 60 53 61 
-3.52284 33.5648 140.225 198 184 183 
27.2858 38.3142 152.137 33 39 29 
13.69 35.7561 138.726 93 96 53 
34.6185 38.5929 149.746 75 86 80 
13.5815 37.7449 141.793 70 69 38 
29.1799 41.1255 152.911 54 55 49 
16.2938 38.5997 140.554 33 24 15 
15.1602 38.5718 137.631 86 83 66 
15.9107 38.8569 137.274 104 104 78 
-33.7046 40.4291 141.384 165 158 165 
14.2734 42.2017 140.685 85 75 65 
-36.9816 -62.657 183.554 255 255 255 
-32.6284 -62.4356 184.211 251 255 255 
-31.2743 -62.1552 183.655 248 247 243 
-26.7212 -56.0226 178.561 232 230 233 
-36.7996 -51.0023 176.489 134 134 134 
20.6801 -41.6419 177.559 134 135 140 
13.3814 -35.3568 170.503 255 255 255 
-3.1328 -42.3508 211.13 254 254 255 
27.8621 -34.6647 172.524 251 251 251 
28.9141 -33.3018 171.708 138 139 143 
-23.8804 -24.9415 167.281 123 123 113 
-21.5609 -22.5936 162.848 86 83 68 
35.3617 -22.6183 171.357 176 177 171 
-21.4205 -19.8697 166.28 58 62 65 
-13.4374 -19.7976 166.896 66 65 70 
-8.83289 -19.7182 166.937 64 63 61 
1.01491 -20.3549 171.311 68 72 73 
36.269 -20.1139 170.063 183 187 186 
-8.77772 -17.3315 177.485 211 215 216 
26.9417 -16.9891 174.424 125 132 140 
-16.7826 -14.5884 165.75 112 116 125 
-14.3859 -15.0434 171.288 117 126 133 
15.3459 -12.947 166.201 134 135 139 
-23.4201 0.663038 152.889 214 211 202 
-29.2725 8.64597 145.149 222 243 246 
32.0783 12.3222 160.966 204 206 201 
22.2217 15.929 162.23 155 160 163 
8.59632 26.9441 141.405 33 23 21 
-23.1566 28.3907 144.347 79 71 82 
-8.68603 28.4251 144.313 79 67 77 
-2.13091 29.3837 139.439 166 167 162 
-3.09173 33.5237 138.913 191 183 180 
